ply
		format ascii 1.0
		element vertex 8640
		property float x
		property float y
		property float z
		property uchar red
		property uchar green
		property uchar blue
		end_header
121.000000 -24.000000 60.222336 127 127 127
122.000000 -24.000000 60.222336 128 128 128
123.000000 -24.000000 60.930832 128 128 128
124.000000 -24.000000 60.576584 130 130 130
125.000000 -24.000000 59.868088 134 134 134
126.000000 -24.000000 58.805340 134 134 134
127.000000 -24.000000 58.805340 135 135 135
128.000000 -24.000000 59.159588 136 136 136
129.000000 -24.000000 59.513836 136 136 136
130.000000 -24.000000 60.576584 135 135 135
131.000000 -24.000000 60.930832 136 136 136
132.000000 -24.000000 60.930832 137 137 137
133.000000 -24.000000 61.285084 139 139 139
134.000000 -24.000000 61.993580 140 140 140
135.000000 -24.000000 62.347828 143 143 143
136.000000 -24.000000 62.347828 145 145 145
137.000000 -24.000000 62.347828 144 144 144
138.000000 -24.000000 60.930832 144 144 144
139.000000 -24.000000 60.576584 146 146 146
140.000000 -24.000000 60.222336 148 148 148
141.000000 -24.000000 58.805340 149 149 149
142.000000 -24.000000 59.513836 151 151 151
143.000000 -24.000000 61.639332 152 152 152
144.000000 -24.000000 61.639332 152 152 152
145.000000 -24.000000 43.218380 153 153 153
146.000000 -24.000000 40.384388 155 155 155
147.000000 -24.000000 40.030140 156 156 156
148.000000 -24.000000 36.133400 155 155 155
149.000000 -24.000000 48.886368 154 154 154
150.000000 -24.000000 60.222336 152 152 152
151.000000 -24.000000 59.868088 151 151 151
152.000000 -24.000000 59.159588 149 149 149
153.000000 -24.000000 58.805340 148 148 148
154.000000 -24.000000 59.513836 150 150 150
155.000000 -24.000000 59.513836 153 153 153
156.000000 -24.000000 13.461463 156 156 156
157.000000 -24.000000 13.461463 161 161 161
158.000000 -24.000000 13.107214 161 161 161
63.000000 -25.000000 164.371552 57 57 57
64.000000 -25.000000 164.371552 49 49 49
65.000000 -25.000000 164.725800 48 48 48
66.000000 -25.000000 164.725800 48 48 48
67.000000 -25.000000 164.725800 49 49 49
68.000000 -25.000000 164.725800 56 56 56
69.000000 -25.000000 165.434296 58 58 58
70.000000 -25.000000 165.788544 52 52 52
71.000000 -25.000000 165.788544 44 44 44
72.000000 -25.000000 165.788544 41 41 41
73.000000 -25.000000 166.142792 60 60 60
74.000000 -25.000000 166.497040 116 116 116
75.000000 -25.000000 166.497040 158 158 158
76.000000 -25.000000 166.142792 174 174 174
77.000000 -25.000000 165.080048 185 185 185
78.000000 -25.000000 165.434296 196 196 196
79.000000 -25.000000 166.142792 205 205 205
80.000000 -25.000000 166.851288 211 211 211
81.000000 -25.000000 168.622543 214 214 214
82.000000 -25.000000 168.976791 216 216 216
83.000000 -25.000000 169.685287 220 220 220
84.000000 -25.000000 170.393784 222 222 222
85.000000 -25.000000 171.102280 224 224 224
86.000000 -25.000000 171.102280 225 225 225
87.000000 -25.000000 171.102280 225 225 225
88.000000 -25.000000 169.331039 224 224 224
89.000000 -25.000000 169.331039 223 223 223
90.000000 -25.000000 170.039536 222 222 222
91.000000 -25.000000 170.039536 221 221 221
92.000000 -25.000000 170.393784 220 220 220
93.000000 -25.000000 170.393784 217 217 217
94.000000 -25.000000 171.810776 209 209 209
95.000000 -25.000000 172.519272 190 190 190
96.000000 -25.000000 173.582031 151 151 151
97.000000 -25.000000 171.102280 109 109 109
98.000000 -25.000000 170.748032 88 88 88
99.000000 -25.000000 170.748032 73 73 73
100.000000 -25.000000 60.930832 69 69 69
101.000000 -25.000000 60.222336 69 69 69
102.000000 -25.000000 60.222336 69 69 69
103.000000 -25.000000 60.222336 63 63 63
104.000000 -25.000000 60.576584 58 58 58
105.000000 -25.000000 60.576584 57 57 57
106.000000 -25.000000 59.159588 62 62 62
107.000000 -25.000000 168.268295 67 67 67
108.000000 -25.000000 170.039536 68 68 68
109.000000 -25.000000 170.039536 62 62 62
110.000000 -25.000000 164.371552 58 58 58
111.000000 -25.000000 163.308807 59 59 59
112.000000 -25.000000 61.285084 62 62 62
113.000000 -25.000000 59.868088 70 70 70
114.000000 -25.000000 58.096840 81 81 81
115.000000 -25.000000 58.096840 81 81 81
116.000000 -25.000000 58.805340 87 87 87
117.000000 -25.000000 60.576584 93 93 93
118.000000 -25.000000 60.576584 107 107 107
119.000000 -25.000000 60.222336 125 125 125
120.000000 -25.000000 60.222336 128 128 128
121.000000 -25.000000 60.222336 128 128 128
122.000000 -25.000000 60.576584 129 129 129
123.000000 -25.000000 61.285084 129 129 129
124.000000 -25.000000 61.285084 130 130 130
125.000000 -25.000000 60.576584 134 134 134
126.000000 -25.000000 59.513836 134 134 134
127.000000 -25.000000 59.513836 135 135 135
128.000000 -25.000000 59.513836 136 136 136
129.000000 -25.000000 60.222336 136 136 136
130.000000 -25.000000 60.930832 136 136 136
131.000000 -25.000000 61.285084 137 137 137
132.000000 -25.000000 61.285084 138 138 138
133.000000 -25.000000 61.285084 140 140 140
134.000000 -25.000000 61.993580 141 141 141
135.000000 -25.000000 62.347828 144 144 144
136.000000 -25.000000 62.347828 146 146 146
137.000000 -25.000000 62.347828 145 145 145
138.000000 -25.000000 61.285084 144 144 144
139.000000 -25.000000 60.576584 146 146 146
140.000000 -25.000000 58.805340 149 149 149
141.000000 -25.000000 58.805340 151 151 151
142.000000 -25.000000 59.159588 153 153 153
143.000000 -25.000000 61.639332 154 154 154
144.000000 -25.000000 61.993580 154 154 154
145.000000 -25.000000 61.993580 153 153 153
146.000000 -25.000000 46.052376 156 156 156
147.000000 -25.000000 46.052376 157 157 157
148.000000 -25.000000 48.886368 157 157 157
149.000000 -25.000000 60.930832 157 157 157
150.000000 -25.000000 60.222336 155 155 155
151.000000 -25.000000 59.868088 154 154 154
152.000000 -25.000000 59.513836 152 152 152
153.000000 -25.000000 59.513836 151 151 151
154.000000 -25.000000 60.576584 153 153 153
155.000000 -25.000000 60.930832 156 156 156
156.000000 -25.000000 60.930832 161 161 161
157.000000 -25.000000 13.107214 166 166 166
158.000000 -25.000000 12.752965 166 166 166
63.000000 -26.000000 164.371552 56 56 56
64.000000 -26.000000 164.725800 45 45 45
65.000000 -26.000000 164.725800 45 45 45
66.000000 -26.000000 164.725800 47 47 47
67.000000 -26.000000 164.725800 48 48 48
68.000000 -26.000000 164.725800 51 51 51
69.000000 -26.000000 165.434296 57 57 57
70.000000 -26.000000 165.434296 55 55 55
71.000000 -26.000000 165.788544 45 45 45
72.000000 -26.000000 165.788544 41 41 41
73.000000 -26.000000 165.788544 77 77 77
74.000000 -26.000000 166.142792 136 136 136
75.000000 -26.000000 166.142792 161 161 161
76.000000 -26.000000 165.434296 173 173 173
77.000000 -26.000000 164.725800 185 185 185
78.000000 -26.000000 164.725800 197 197 197
79.000000 -26.000000 165.434296 206 206 206
80.000000 -26.000000 166.851288 213 213 213
81.000000 -26.000000 167.914047 217 217 217
82.000000 -26.000000 168.976791 220 220 220
83.000000 -26.000000 170.039536 221 221 221
84.000000 -26.000000 170.748032 222 222 222
85.000000 -26.000000 172.519272 224 224 224
86.000000 -26.000000 174.290527 225 225 225
87.000000 -26.000000 172.519272 225 225 225
88.000000 -26.000000 167.559784 225 225 225
89.000000 -26.000000 167.559784 227 227 227
90.000000 -26.000000 169.685287 228 228 228
91.000000 -26.000000 170.039536 227 227 227
92.000000 -26.000000 170.393784 225 225 225
93.000000 -26.000000 170.393784 221 221 221
94.000000 -26.000000 171.456528 216 216 216
95.000000 -26.000000 173.227783 205 205 205
96.000000 -26.000000 173.582031 174 174 174
97.000000 -26.000000 173.227783 125 125 125
98.000000 -26.000000 172.519272 98 98 98
99.000000 -26.000000 172.519272 82 82 82
100.000000 -26.000000 170.748032 73 73 73
101.000000 -26.000000 60.930832 69 69 69
102.000000 -26.000000 60.930832 72 72 72
103.000000 -26.000000 165.788544 70 70 70
104.000000 -26.000000 165.788544 64 64 64
105.000000 -26.000000 165.788544 61 61 61
106.000000 -26.000000 166.497040 62 62 62
107.000000 -26.000000 169.685287 67 67 67
108.000000 -26.000000 170.039536 66 66 66
109.000000 -26.000000 170.039536 63 63 63
110.000000 -26.000000 164.725800 59 59 59
111.000000 -26.000000 163.663055 57 57 57
112.000000 -26.000000 161.891800 60 60 60
113.000000 -26.000000 160.474808 65 65 65
114.000000 -26.000000 59.868088 76 76 76
115.000000 -26.000000 59.868088 80 80 80
116.000000 -26.000000 60.576584 82 82 82
117.000000 -26.000000 60.930832 90 90 90
118.000000 -26.000000 60.930832 107 107 107
119.000000 -26.000000 60.576584 125 125 125
120.000000 -26.000000 60.576584 128 128 128
121.000000 -26.000000 60.576584 130 130 130
122.000000 -26.000000 61.285084 130 130 130
123.000000 -26.000000 61.639332 129 129 129
124.000000 -26.000000 61.639332 131 131 131
125.000000 -26.000000 61.285084 134 134 134
126.000000 -26.000000 60.576584 134 134 134
127.000000 -26.000000 60.222336 136 136 136
128.000000 -26.000000 60.222336 137 137 137
129.000000 -26.000000 60.576584 137 137 137
130.000000 -26.000000 61.285084 137 137 137
131.000000 -26.000000 61.285084 138 138 138
132.000000 -26.000000 61.285084 139 139 139
133.000000 -26.000000 61.285084 141 141 141
134.000000 -26.000000 61.639332 142 142 142
135.000000 -26.000000 62.347828 144 144 144
136.000000 -26.000000 62.347828 146 146 146
137.000000 -26.000000 62.347828 146 146 146
138.000000 -26.000000 61.285084 145 145 145
139.000000 -26.000000 60.576584 147 147 147
140.000000 -26.000000 59.159588 148 148 148
141.000000 -26.000000 58.805340 150 150 150
142.000000 -26.000000 59.159588 153 153 153
143.000000 -26.000000 61.639332 157 157 157
144.000000 -26.000000 61.993580 156 156 156
145.000000 -26.000000 62.347828 156 156 156
146.000000 -26.000000 61.993580 158 158 158
147.000000 -26.000000 61.285084 159 159 159
148.000000 -26.000000 61.285084 158 158 158
149.000000 -26.000000 61.285084 159 159 159
150.000000 -26.000000 61.285084 158 158 158
151.000000 -26.000000 60.222336 156 156 156
152.000000 -26.000000 59.868088 154 154 154
153.000000 -26.000000 60.222336 154 154 154
154.000000 -26.000000 60.576584 155 155 155
155.000000 -26.000000 61.285084 159 159 159
156.000000 -26.000000 61.285084 165 165 165
157.000000 -26.000000 13.107214 170 170 170
158.000000 -26.000000 12.752965 165 165 165
63.000000 -27.000000 164.725800 54 54 54
64.000000 -27.000000 165.080048 41 41 41
65.000000 -27.000000 165.080048 45 45 45
66.000000 -27.000000 165.080048 46 46 46
67.000000 -27.000000 165.080048 44 44 44
68.000000 -27.000000 165.434296 47 47 47
69.000000 -27.000000 165.788544 61 61 61
70.000000 -27.000000 165.788544 66 66 66
71.000000 -27.000000 165.788544 54 54 54
72.000000 -27.000000 165.788544 48 48 48
73.000000 -27.000000 166.142792 89 89 89
74.000000 -27.000000 166.497040 128 128 128
75.000000 -27.000000 166.497040 141 141 141
76.000000 -27.000000 165.434296 156 156 156
77.000000 -27.000000 164.725800 172 172 172
78.000000 -27.000000 164.725800 185 185 185
79.000000 -27.000000 165.434296 196 196 196
80.000000 -27.000000 166.851288 209 209 209
81.000000 -27.000000 167.559784 220 220 220
82.000000 -27.000000 168.622543 227 227 227
83.000000 -27.000000 170.039536 227 227 227
84.000000 -27.000000 171.810776 227 227 227
85.000000 -27.000000 174.290527 228 228 228
86.000000 -27.000000 174.999023 230 230 230
87.000000 -27.000000 174.999023 229 229 229
88.000000 -27.000000 168.976791 230 230 230
89.000000 -27.000000 168.976791 234 234 234
90.000000 -27.000000 170.039536 234 234 234
91.000000 -27.000000 170.748032 231 231 231
92.000000 -27.000000 170.748032 227 227 227
93.000000 -27.000000 170.393784 220 220 220
94.000000 -27.000000 170.393784 213 213 213
95.000000 -27.000000 171.456528 203 203 203
96.000000 -27.000000 172.519272 183 183 183
97.000000 -27.000000 172.519272 143 143 143
98.000000 -27.000000 173.582031 109 109 109
99.000000 -27.000000 173.582031 94 94 94
100.000000 -27.000000 173.227783 82 82 82
101.000000 -27.000000 170.748032 74 74 74
102.000000 -27.000000 167.559784 72 72 72
103.000000 -27.000000 166.851288 71 71 71
104.000000 -27.000000 166.497040 67 67 67
105.000000 -27.000000 166.851288 66 66 66
106.000000 -27.000000 168.268295 63 63 63
107.000000 -27.000000 169.685287 61 61 61
108.000000 -27.000000 170.393784 60 60 60
109.000000 -27.000000 170.039536 61 61 61
110.000000 -27.000000 164.725800 61 61 61
111.000000 -27.000000 161.183304 58 58 58
112.000000 -27.000000 160.474808 59 59 59
113.000000 -27.000000 160.474808 61 61 61
114.000000 -27.000000 161.891800 69 69 69
115.000000 -27.000000 162.954559 76 76 76
116.000000 -27.000000 61.639332 75 75 75
117.000000 -27.000000 61.285084 86 86 86
118.000000 -27.000000 61.285084 109 109 109
119.000000 -27.000000 60.576584 125 125 125
120.000000 -27.000000 60.576584 128 128 128
121.000000 -27.000000 60.576584 129 129 129
122.000000 -27.000000 61.285084 130 130 130
123.000000 -27.000000 61.639332 130 130 130
124.000000 -27.000000 61.639332 131 131 131
125.000000 -27.000000 61.285084 133 133 133
126.000000 -27.000000 60.576584 134 134 134
127.000000 -27.000000 60.222336 136 136 136
128.000000 -27.000000 60.222336 137 137 137
129.000000 -27.000000 60.576584 138 138 138
130.000000 -27.000000 60.930832 138 138 138
131.000000 -27.000000 61.285084 139 139 139
132.000000 -27.000000 60.576584 140 140 140
133.000000 -27.000000 60.576584 142 142 142
134.000000 -27.000000 60.930832 144 144 144
135.000000 -27.000000 61.993580 145 145 145
136.000000 -27.000000 62.347828 146 146 146
137.000000 -27.000000 61.993580 145 145 145
138.000000 -27.000000 60.930832 144 144 144
139.000000 -27.000000 60.576584 146 146 146
140.000000 -27.000000 59.159588 149 149 149
141.000000 -27.000000 58.805340 150 150 150
142.000000 -27.000000 59.159588 154 154 154
143.000000 -27.000000 61.285084 159 159 159
144.000000 -27.000000 61.993580 159 159 159
145.000000 -27.000000 61.993580 159 159 159
146.000000 -27.000000 61.993580 159 159 159
147.000000 -27.000000 61.285084 159 159 159
148.000000 -27.000000 61.285084 158 158 158
149.000000 -27.000000 61.639332 159 159 159
150.000000 -27.000000 61.639332 158 158 158
151.000000 -27.000000 60.576584 156 156 156
152.000000 -27.000000 59.868088 156 156 156
153.000000 -27.000000 59.868088 156 156 156
154.000000 -27.000000 60.576584 157 157 157
155.000000 -27.000000 61.285084 162 162 162
156.000000 -27.000000 61.285084 167 167 167
157.000000 -27.000000 12.752965 169 169 169
158.000000 -27.000000 12.752965 165 165 165
63.000000 -28.000000 165.080048 55 55 55
64.000000 -28.000000 165.434296 46 46 46
65.000000 -28.000000 166.142792 50 50 50
66.000000 -28.000000 166.142792 47 47 47
67.000000 -28.000000 166.142792 42 42 42
68.000000 -28.000000 166.142792 48 48 48
69.000000 -28.000000 166.497040 69 69 69
70.000000 -28.000000 166.142792 75 75 75
71.000000 -28.000000 166.142792 61 61 61
72.000000 -28.000000 166.142792 50 50 50
73.000000 -28.000000 166.497040 76 76 76
74.000000 -28.000000 166.851288 93 93 93
75.000000 -28.000000 167.559784 102 102 102
76.000000 -28.000000 166.851288 114 114 114
77.000000 -28.000000 165.434296 129 129 129
78.000000 -28.000000 165.080048 143 143 143
79.000000 -28.000000 165.788544 159 159 159
80.000000 -28.000000 166.851288 182 182 182
81.000000 -28.000000 167.559784 207 207 207
82.000000 -28.000000 168.268295 224 224 224
83.000000 -28.000000 170.039536 231 231 231
84.000000 -28.000000 171.456528 234 234 234
85.000000 -28.000000 173.227783 236 236 236
86.000000 -28.000000 174.290527 236 236 236
87.000000 -28.000000 173.936279 232 232 232
88.000000 -28.000000 170.393784 230 230 230
89.000000 -28.000000 169.685287 228 228 228
90.000000 -28.000000 170.039536 222 222 222
91.000000 -28.000000 170.393784 215 215 215
92.000000 -28.000000 170.393784 211 211 211
93.000000 -28.000000 170.039536 204 204 204
94.000000 -28.000000 170.039536 192 192 192
95.000000 -28.000000 170.039536 176 176 176
96.000000 -28.000000 170.393784 160 160 160
97.000000 -28.000000 170.393784 137 137 137
98.000000 -28.000000 172.165024 112 112 112
99.000000 -28.000000 173.227783 98 98 98
100.000000 -28.000000 172.165024 90 90 90
101.000000 -28.000000 171.810776 82 82 82
102.000000 -28.000000 170.748032 74 74 74
103.000000 -28.000000 168.622543 69 69 69
104.000000 -28.000000 167.559784 65 65 65
105.000000 -28.000000 167.559784 67 67 67
106.000000 -28.000000 169.331039 68 68 68
107.000000 -28.000000 170.748032 64 64 64
108.000000 -28.000000 170.748032 60 60 60
109.000000 -28.000000 170.748032 60 60 60
110.000000 -28.000000 161.183304 61 61 61
111.000000 -28.000000 159.057816 60 60 60
112.000000 -28.000000 160.120560 59 59 59
113.000000 -28.000000 160.474808 60 60 60
114.000000 -28.000000 162.954559 64 64 64
115.000000 -28.000000 165.080048 71 71 71
116.000000 -28.000000 165.080048 71 71 71
117.000000 -28.000000 61.285084 85 85 85
118.000000 -28.000000 60.576584 112 112 112
119.000000 -28.000000 60.222336 123 123 123
120.000000 -28.000000 60.576584 126 126 126
121.000000 -28.000000 60.576584 128 128 128
122.000000 -28.000000 61.285084 129 129 129
123.000000 -28.000000 61.639332 130 130 130
124.000000 -28.000000 61.285084 132 132 132
125.000000 -28.000000 60.930832 133 133 133
126.000000 -28.000000 60.576584 134 134 134
127.000000 -28.000000 60.222336 135 135 135
128.000000 -28.000000 60.222336 136 136 136
129.000000 -28.000000 60.576584 137 137 137
130.000000 -28.000000 60.576584 138 138 138
131.000000 -28.000000 60.576584 139 139 139
132.000000 -28.000000 58.805340 139 139 139
133.000000 -28.000000 59.868088 142 142 142
134.000000 -28.000000 60.576584 144 144 144
135.000000 -28.000000 61.639332 146 146 146
136.000000 -28.000000 61.993580 148 148 148
137.000000 -28.000000 61.639332 147 147 147
138.000000 -28.000000 60.576584 145 145 145
139.000000 -28.000000 60.222336 146 146 146
140.000000 -28.000000 58.805340 147 147 147
141.000000 -28.000000 58.805340 150 150 150
142.000000 -28.000000 59.159588 156 156 156
143.000000 -28.000000 61.285084 161 161 161
144.000000 -28.000000 61.639332 161 161 161
145.000000 -28.000000 61.639332 160 160 160
146.000000 -28.000000 61.285084 160 160 160
147.000000 -28.000000 61.285084 159 159 159
148.000000 -28.000000 61.285084 157 157 157
149.000000 -28.000000 61.993580 158 158 158
150.000000 -28.000000 61.993580 157 157 157
151.000000 -28.000000 60.576584 157 157 157
152.000000 -28.000000 59.159588 157 157 157
153.000000 -28.000000 59.159588 157 157 157
154.000000 -28.000000 60.222336 158 158 158
155.000000 -28.000000 60.576584 164 164 164
156.000000 -28.000000 60.576584 171 171 171
157.000000 -28.000000 13.461463 171 171 171
158.000000 -28.000000 12.752965 171 171 171
63.000000 -29.000000 165.434296 58 58 58
64.000000 -29.000000 166.142792 55 55 55
65.000000 -29.000000 166.851288 56 56 56
66.000000 -29.000000 166.851288 49 49 49
67.000000 -29.000000 167.205536 43 43 43
68.000000 -29.000000 166.851288 55 55 55
69.000000 -29.000000 167.205536 75 75 75
70.000000 -29.000000 166.851288 80 80 80
71.000000 -29.000000 166.497040 64 64 64
72.000000 -29.000000 166.497040 52 52 52
73.000000 -29.000000 166.851288 75 75 75
74.000000 -29.000000 167.205536 98 98 98
75.000000 -29.000000 167.914047 114 114 114
76.000000 -29.000000 168.268295 114 114 114
77.000000 -29.000000 167.205536 108 108 108
78.000000 -29.000000 166.142792 111 111 111
79.000000 -29.000000 166.851288 125 125 125
80.000000 -29.000000 167.559784 149 149 149
81.000000 -29.000000 168.268295 183 183 183
82.000000 -29.000000 168.622543 210 210 210
83.000000 -29.000000 170.039536 222 222 222
84.000000 -29.000000 171.102280 229 229 229
85.000000 -29.000000 172.165024 233 233 233
86.000000 -29.000000 173.227783 232 232 232
87.000000 -29.000000 172.873520 223 223 223
88.000000 -29.000000 171.456528 212 212 212
89.000000 -29.000000 170.039536 201 201 201
90.000000 -29.000000 170.039536 183 183 183
91.000000 -29.000000 170.039536 164 164 164
92.000000 -29.000000 170.039536 156 156 156
93.000000 -29.000000 170.039536 150 150 150
94.000000 -29.000000 170.039536 143 143 143
95.000000 -29.000000 170.039536 134 134 134
96.000000 -29.000000 170.039536 127 127 127
97.000000 -29.000000 168.976791 117 117 117
98.000000 -29.000000 170.039536 108 108 108
99.000000 -29.000000 171.810776 101 101 101
100.000000 -29.000000 172.165024 95 95 95
101.000000 -29.000000 171.810776 87 87 87
102.000000 -29.000000 171.456528 76 76 76
103.000000 -29.000000 170.748032 73 73 73
104.000000 -29.000000 169.685287 70 70 70
105.000000 -29.000000 169.331039 69 69 69
106.000000 -29.000000 170.039536 67 67 67
107.000000 -29.000000 171.810776 67 67 67
108.000000 -29.000000 172.519272 64 64 64
109.000000 -29.000000 172.165024 62 62 62
110.000000 -29.000000 57.034096 63 63 63
111.000000 -29.000000 57.034096 64 64 64
112.000000 -29.000000 159.057816 62 62 62
113.000000 -29.000000 160.120560 61 61 61
114.000000 -29.000000 163.308807 63 63 63
115.000000 -29.000000 165.434296 68 68 68
116.000000 -29.000000 165.434296 72 72 72
117.000000 -29.000000 59.159588 89 89 89
118.000000 -29.000000 58.451092 113 113 113
119.000000 -29.000000 59.159588 122 122 122
120.000000 -29.000000 60.222336 124 124 124
121.000000 -29.000000 60.576584 127 127 127
122.000000 -29.000000 61.285084 128 128 128
123.000000 -29.000000 61.285084 130 130 130
124.000000 -29.000000 61.285084 133 133 133
125.000000 -29.000000 60.930832 134 134 134
126.000000 -29.000000 60.576584 134 134 134
127.000000 -29.000000 60.576584 136 136 136
128.000000 -29.000000 60.222336 136 136 136
129.000000 -29.000000 60.222336 136 136 136
130.000000 -29.000000 60.222336 137 137 137
131.000000 -29.000000 58.805340 138 138 138
132.000000 -29.000000 58.096840 140 140 140
133.000000 -29.000000 58.096840 141 141 141
134.000000 -29.000000 60.222336 144 144 144
135.000000 -29.000000 61.285084 147 147 147
136.000000 -29.000000 61.639332 149 149 149
137.000000 -29.000000 61.285084 149 149 149
138.000000 -29.000000 60.576584 148 148 148
139.000000 -29.000000 60.222336 149 149 149
140.000000 -29.000000 59.159588 150 150 150
141.000000 -29.000000 58.805340 152 152 152
142.000000 -29.000000 59.513836 157 157 157
143.000000 -29.000000 61.285084 161 161 161
144.000000 -29.000000 61.639332 162 162 162
145.000000 -29.000000 61.639332 161 161 161
146.000000 -29.000000 60.930832 161 161 161
147.000000 -29.000000 60.930832 159 159 159
148.000000 -29.000000 61.285084 156 156 156
149.000000 -29.000000 62.347828 156 156 156
150.000000 -29.000000 62.347828 155 155 155
151.000000 -29.000000 60.930832 156 156 156
152.000000 -29.000000 60.222336 157 157 157
153.000000 -29.000000 59.159588 157 157 157
154.000000 -29.000000 59.513836 157 157 157
155.000000 -29.000000 60.222336 166 166 166
156.000000 -29.000000 59.159588 174 174 174
157.000000 -29.000000 15.232708 176 176 176
158.000000 -29.000000 13.107214 176 176 176
63.000000 -30.000000 166.142792 60 60 60
64.000000 -30.000000 166.851288 59 59 59
65.000000 -30.000000 167.559784 59 59 59
66.000000 -30.000000 167.205536 51 51 51
67.000000 -30.000000 167.559784 47 47 47
68.000000 -30.000000 167.914047 64 64 64
69.000000 -30.000000 168.622543 79 79 79
70.000000 -30.000000 167.205536 80 80 80
71.000000 -30.000000 166.851288 65 65 65
72.000000 -30.000000 166.497040 61 61 61
73.000000 -30.000000 166.851288 109 109 109
74.000000 -30.000000 167.205536 147 147 147
75.000000 -30.000000 167.914047 169 169 169
76.000000 -30.000000 168.268295 175 175 175
77.000000 -30.000000 168.268295 163 163 163
78.000000 -30.000000 167.914047 148 148 148
79.000000 -30.000000 167.914047 139 139 139
80.000000 -30.000000 168.268295 144 144 144
81.000000 -30.000000 168.622543 168 168 168
82.000000 -30.000000 168.976791 197 197 197
83.000000 -30.000000 170.039536 212 212 212
84.000000 -30.000000 171.102280 218 218 218
85.000000 -30.000000 172.165024 223 223 223
86.000000 -30.000000 172.165024 223 223 223
87.000000 -30.000000 172.165024 212 212 212
88.000000 -30.000000 171.456528 196 196 196
89.000000 -30.000000 170.039536 180 180 180
90.000000 -30.000000 170.039536 159 159 159
91.000000 -30.000000 170.039536 138 138 138
92.000000 -30.000000 170.039536 129 129 129
93.000000 -30.000000 170.039536 134 134 134
94.000000 -30.000000 170.039536 148 148 148
95.000000 -30.000000 170.039536 161 161 161
96.000000 -30.000000 168.268295 163 163 163
97.000000 -30.000000 167.914047 157 157 157
98.000000 -30.000000 168.268295 145 145 145
99.000000 -30.000000 170.039536 126 126 126
100.000000 -30.000000 170.748032 107 107 107
101.000000 -30.000000 171.456528 93 93 93
102.000000 -30.000000 171.456528 80 80 80
103.000000 -30.000000 171.456528 74 74 74
104.000000 -30.000000 170.748032 74 74 74
105.000000 -30.000000 170.039536 71 71 71
106.000000 -30.000000 170.748032 66 66 66
107.000000 -30.000000 171.810776 63 63 63
108.000000 -30.000000 173.227783 62 62 62
109.000000 -30.000000 173.227783 64 64 64
110.000000 -30.000000 164.725800 66 66 66
111.000000 -30.000000 58.096840 67 67 67
112.000000 -30.000000 160.120560 66 66 66
113.000000 -30.000000 163.308807 64 64 64
114.000000 -30.000000 165.080048 64 64 64
115.000000 -30.000000 165.434296 67 67 67
116.000000 -30.000000 59.159588 75 75 75
117.000000 -30.000000 56.679844 93 93 93
118.000000 -30.000000 56.679844 113 113 113
119.000000 -30.000000 58.096840 122 122 122
120.000000 -30.000000 60.222336 124 124 124
121.000000 -30.000000 60.576584 126 126 126
122.000000 -30.000000 61.285084 127 127 127
123.000000 -30.000000 61.285084 130 130 130
124.000000 -30.000000 61.285084 133 133 133
125.000000 -30.000000 60.930832 134 134 134
126.000000 -30.000000 60.930832 134 134 134
127.000000 -30.000000 60.576584 135 135 135
128.000000 -30.000000 60.222336 135 135 135
129.000000 -30.000000 60.222336 136 136 136
130.000000 -30.000000 59.513836 136 136 136
131.000000 -30.000000 58.805340 137 137 137
132.000000 -30.000000 57.742592 139 139 139
133.000000 -30.000000 57.742592 141 141 141
134.000000 -30.000000 59.159588 144 144 144
135.000000 -30.000000 61.285084 147 147 147
136.000000 -30.000000 61.285084 150 150 150
137.000000 -30.000000 61.285084 149 149 149
138.000000 -30.000000 60.576584 149 149 149
139.000000 -30.000000 60.222336 151 151 151
140.000000 -30.000000 60.222336 152 152 152
141.000000 -30.000000 59.513836 154 154 154
142.000000 -30.000000 60.576584 158 158 158
143.000000 -30.000000 61.285084 162 162 162
144.000000 -30.000000 61.639332 163 163 163
145.000000 -30.000000 61.639332 162 162 162
146.000000 -30.000000 60.930832 162 162 162
147.000000 -30.000000 60.930832 158 158 158
148.000000 -30.000000 60.930832 154 154 154
149.000000 -30.000000 62.347828 154 154 154
150.000000 -30.000000 62.347828 154 154 154
151.000000 -30.000000 61.993580 155 155 155
152.000000 -30.000000 60.576584 156 156 156
153.000000 -30.000000 60.222336 155 155 155
154.000000 -30.000000 60.222336 158 158 158
155.000000 -30.000000 59.513836 169 169 169
156.000000 -30.000000 58.805340 176 176 176
157.000000 -30.000000 16.649704 179 179 179
158.000000 -30.000000 13.815712 177 177 177
63.000000 -31.000000 166.142792 60 60 60
64.000000 -31.000000 167.205536 58 58 58
65.000000 -31.000000 168.268295 62 62 62
66.000000 -31.000000 168.268295 55 55 55
67.000000 -31.000000 168.268295 53 53 53
68.000000 -31.000000 168.976791 71 71 71
69.000000 -31.000000 168.976791 77 77 77
70.000000 -31.000000 168.622543 72 72 72
71.000000 -31.000000 166.851288 58 58 58
72.000000 -31.000000 166.851288 70 70 70
73.000000 -31.000000 166.851288 129 129 129
74.000000 -31.000000 167.205536 162 162 162
75.000000 -31.000000 167.914047 176 176 176
76.000000 -31.000000 168.268295 183 183 183
77.000000 -31.000000 168.268295 184 184 184
78.000000 -31.000000 168.268295 176 176 176
79.000000 -31.000000 168.268295 161 161 161
80.000000 -31.000000 168.622543 153 153 153
81.000000 -31.000000 168.976791 158 158 158
82.000000 -31.000000 169.685287 181 181 181
83.000000 -31.000000 170.039536 205 205 205
84.000000 -31.000000 171.102280 217 217 217
85.000000 -31.000000 172.165024 223 223 223
86.000000 -31.000000 172.165024 226 226 226
87.000000 -31.000000 171.810776 215 215 215
88.000000 -31.000000 170.393784 200 200 200
89.000000 -31.000000 170.039536 190 190 190
90.000000 -31.000000 170.039536 182 182 182
91.000000 -31.000000 170.039536 175 175 175
92.000000 -31.000000 170.039536 174 174 174
93.000000 -31.000000 170.039536 186 186 186
94.000000 -31.000000 170.039536 202 202 202
95.000000 -31.000000 169.685287 216 216 216
96.000000 -31.000000 168.268295 220 220 220
97.000000 -31.000000 166.851288 215 215 215
98.000000 -31.000000 167.559784 203 203 203
99.000000 -31.000000 168.622543 179 179 179
100.000000 -31.000000 170.039536 138 138 138
101.000000 -31.000000 170.393784 106 106 106
102.000000 -31.000000 171.456528 89 89 89
103.000000 -31.000000 171.810776 78 78 78
104.000000 -31.000000 171.810776 74 74 74
105.000000 -31.000000 171.102280 70 70 70
106.000000 -31.000000 171.102280 66 66 66
107.000000 -31.000000 171.810776 61 61 61
108.000000 -31.000000 172.519272 58 58 58
109.000000 -31.000000 172.519272 63 63 63
110.000000 -31.000000 170.039536 69 69 69
111.000000 -31.000000 164.725800 66 66 66
112.000000 -31.000000 164.725800 64 64 64
113.000000 -31.000000 164.371552 69 69 69
114.000000 -31.000000 165.080048 71 71 71
115.000000 -31.000000 57.034096 65 65 65
116.000000 -31.000000 56.679844 70 70 70
117.000000 -31.000000 56.325596 87 87 87
118.000000 -31.000000 56.325596 109 109 109
119.000000 -31.000000 56.679844 121 121 121
120.000000 -31.000000 59.868088 124 124 124
121.000000 -31.000000 60.576584 126 126 126
122.000000 -31.000000 61.285084 126 126 126
123.000000 -31.000000 61.285084 128 128 128
124.000000 -31.000000 61.285084 132 132 132
125.000000 -31.000000 60.930832 134 134 134
126.000000 -31.000000 60.930832 134 134 134
127.000000 -31.000000 60.576584 134 134 134
128.000000 -31.000000 60.576584 135 135 135
129.000000 -31.000000 60.222336 136 136 136
130.000000 -31.000000 59.868088 136 136 136
131.000000 -31.000000 59.159588 137 137 137
132.000000 -31.000000 58.096840 139 139 139
133.000000 -31.000000 58.096840 140 140 140
134.000000 -31.000000 58.805340 144 144 144
135.000000 -31.000000 60.930832 147 147 147
136.000000 -31.000000 61.285084 149 149 149
137.000000 -31.000000 61.285084 149 149 149
138.000000 -31.000000 60.930832 149 149 149
139.000000 -31.000000 60.576584 151 151 151
140.000000 -31.000000 60.576584 152 152 152
141.000000 -31.000000 60.576584 155 155 155
142.000000 -31.000000 61.285084 159 159 159
143.000000 -31.000000 61.639332 161 161 161
144.000000 -31.000000 61.993580 161 161 161
145.000000 -31.000000 61.639332 161 161 161
146.000000 -31.000000 60.930832 160 160 160
147.000000 -31.000000 60.930832 156 156 156
148.000000 -31.000000 60.930832 154 154 154
149.000000 -31.000000 62.347828 155 155 155
150.000000 -31.000000 62.347828 154 154 154
151.000000 -31.000000 62.347828 155 155 155
152.000000 -31.000000 61.285084 154 154 154
153.000000 -31.000000 60.576584 153 153 153
154.000000 -31.000000 60.222336 158 158 158
155.000000 -31.000000 59.159588 167 167 167
156.000000 -31.000000 18.066700 174 174 174
157.000000 -31.000000 17.003954 180 180 180
158.000000 -31.000000 15.586957 176 176 176
63.000000 -32.000000 166.497040 61 61 61
64.000000 -32.000000 167.205536 58 58 58
65.000000 -32.000000 167.914047 65 65 65
66.000000 -32.000000 168.268295 61 61 61
67.000000 -32.000000 168.976791 60 60 60
68.000000 -32.000000 169.685287 72 72 72
69.000000 -32.000000 169.685287 71 71 71
70.000000 -32.000000 168.622543 59 59 59
71.000000 -32.000000 166.851288 51 51 51
72.000000 -32.000000 166.497040 83 83 83
73.000000 -32.000000 166.497040 134 134 134
74.000000 -32.000000 167.914047 146 146 146
75.000000 -32.000000 168.622543 143 143 143
76.000000 -32.000000 169.331039 146 146 146
77.000000 -32.000000 168.622543 147 147 147
78.000000 -32.000000 168.622543 143 143 143
79.000000 -32.000000 168.622543 142 142 142
80.000000 -32.000000 169.685287 144 144 144
81.000000 -32.000000 169.685287 148 148 148
82.000000 -32.000000 170.039536 163 163 163
83.000000 -32.000000 170.039536 193 193 193
84.000000 -32.000000 171.456528 217 217 217
85.000000 -32.000000 172.519272 228 228 228
86.000000 -32.000000 172.165024 236 236 236
87.000000 -32.000000 171.810776 226 226 226
88.000000 -32.000000 170.039536 214 214 214
89.000000 -32.000000 170.039536 208 208 208
90.000000 -32.000000 170.039536 204 204 204
91.000000 -32.000000 170.393784 196 196 196
92.000000 -32.000000 170.039536 191 191 191
93.000000 -32.000000 169.685287 195 195 195
94.000000 -32.000000 169.685287 203 203 203
95.000000 -32.000000 169.685287 213 213 213
96.000000 -32.000000 168.268295 220 220 220
97.000000 -32.000000 166.851288 222 222 222
98.000000 -32.000000 167.559784 218 218 218
99.000000 -32.000000 168.268295 206 206 206
100.000000 -32.000000 168.622543 170 170 170
101.000000 -32.000000 170.039536 124 124 124
102.000000 -32.000000 170.393784 99 99 99
103.000000 -32.000000 171.810776 87 87 87
104.000000 -32.000000 171.810776 78 78 78
105.000000 -32.000000 171.456528 70 70 70
106.000000 -32.000000 171.456528 65 65 65
107.000000 -32.000000 172.165024 64 64 64
108.000000 -32.000000 172.519272 61 61 61
109.000000 -32.000000 171.810776 60 60 60
110.000000 -32.000000 170.039536 66 66 66
111.000000 -32.000000 166.851288 66 66 66
112.000000 -32.000000 166.851288 60 60 60
113.000000 -32.000000 166.851288 61 61 61
114.000000 -32.000000 165.434296 65 65 65
115.000000 -32.000000 56.679844 60 60 60
116.000000 -32.000000 55.971348 60 60 60
117.000000 -32.000000 55.971348 75 75 75
118.000000 -32.000000 55.971348 101 101 101
119.000000 -32.000000 56.679844 119 119 119
120.000000 -32.000000 59.159588 125 125 125
121.000000 -32.000000 60.576584 127 127 127
122.000000 -32.000000 61.285084 127 127 127
123.000000 -32.000000 61.993580 128 128 128
124.000000 -32.000000 61.993580 132 132 132
125.000000 -32.000000 61.639332 134 134 134
126.000000 -32.000000 60.930832 134 134 134
127.000000 -32.000000 60.576584 135 135 135
128.000000 -32.000000 60.576584 134 134 134
129.000000 -32.000000 60.576584 135 135 135
130.000000 -32.000000 60.222336 136 136 136
131.000000 -32.000000 59.868088 136 136 136
132.000000 -32.000000 58.096840 137 137 137
133.000000 -32.000000 58.096840 138 138 138
134.000000 -32.000000 58.805340 142 142 142
135.000000 -32.000000 60.930832 148 148 148
136.000000 -32.000000 61.285084 150 150 150
137.000000 -32.000000 61.285084 149 149 149
138.000000 -32.000000 61.285084 149 149 149
139.000000 -32.000000 60.930832 149 149 149
140.000000 -32.000000 60.930832 152 152 152
141.000000 -32.000000 60.930832 155 155 155
142.000000 -32.000000 61.993580 158 158 158
143.000000 -32.000000 62.347828 161 161 161
144.000000 -32.000000 62.347828 160 160 160
145.000000 -32.000000 62.347828 159 159 159
146.000000 -32.000000 61.993580 157 157 157
147.000000 -32.000000 61.285084 153 153 153
148.000000 -32.000000 62.347828 153 153 153
149.000000 -32.000000 62.347828 155 155 155
150.000000 -32.000000 62.347828 153 153 153
151.000000 -32.000000 62.347828 154 154 154
152.000000 -32.000000 61.639332 152 152 152
153.000000 -32.000000 61.285084 151 151 151
154.000000 -32.000000 60.576584 157 157 157
155.000000 -32.000000 58.451092 164 164 164
156.000000 -32.000000 18.066700 169 169 169
157.000000 -32.000000 17.003954 176 176 176
158.000000 -32.000000 16.649704 173 173 173
63.000000 -33.000000 165.434296 62 62 62
64.000000 -33.000000 166.497040 60 60 60
65.000000 -33.000000 167.205536 68 68 68
66.000000 -33.000000 168.268295 66 66 66
67.000000 -33.000000 168.976791 66 66 66
68.000000 -33.000000 169.331039 76 76 76
69.000000 -33.000000 169.331039 73 73 73
70.000000 -33.000000 168.622543 54 54 54
71.000000 -33.000000 166.497040 54 54 54
72.000000 -33.000000 166.142792 101 101 101
73.000000 -33.000000 166.497040 140 140 140
74.000000 -33.000000 168.622543 134 134 134
75.000000 -33.000000 169.331039 123 123 123
76.000000 -33.000000 169.685287 139 139 139
77.000000 -33.000000 169.331039 137 137 137
78.000000 -33.000000 169.331039 126 126 126
79.000000 -33.000000 169.331039 127 127 127
80.000000 -33.000000 169.685287 140 140 140
81.000000 -33.000000 170.039536 150 150 150
82.000000 -33.000000 170.393784 159 159 159
83.000000 -33.000000 170.748032 183 183 183
84.000000 -33.000000 171.810776 212 212 212
85.000000 -33.000000 172.519272 228 228 228
86.000000 -33.000000 172.519272 235 235 235
87.000000 -33.000000 171.456528 228 228 228
88.000000 -33.000000 170.039536 219 219 219
89.000000 -33.000000 170.039536 212 212 212
90.000000 -33.000000 170.393784 203 203 203
91.000000 -33.000000 170.393784 187 187 187
92.000000 -33.000000 170.039536 175 175 175
93.000000 -33.000000 169.685287 172 172 172
94.000000 -33.000000 169.685287 171 171 171
95.000000 -33.000000 168.268295 179 179 179
96.000000 -33.000000 166.497040 188 188 188
97.000000 -33.000000 167.559784 193 193 193
98.000000 -33.000000 167.914047 199 199 199
99.000000 -33.000000 168.268295 202 202 202
100.000000 -33.000000 168.268295 185 185 185
101.000000 -33.000000 168.976791 143 143 143
102.000000 -33.000000 170.039536 110 110 110
103.000000 -33.000000 170.393784 96 96 96
104.000000 -33.000000 171.456528 85 85 85
105.000000 -33.000000 171.456528 75 75 75
106.000000 -33.000000 171.456528 72 72 72
107.000000 -33.000000 172.165024 71 71 71
108.000000 -33.000000 171.810776 66 66 66
109.000000 -33.000000 171.102280 64 64 64
110.000000 -33.000000 169.685287 66 66 66
111.000000 -33.000000 166.851288 65 65 65
112.000000 -33.000000 166.851288 61 61 61
113.000000 -33.000000 166.851288 56 56 56
114.000000 -33.000000 160.829056 52 52 52
115.000000 -33.000000 55.971348 50 50 50
116.000000 -33.000000 54.554352 55 55 55
117.000000 -33.000000 54.554352 66 66 66
118.000000 -33.000000 55.617096 91 91 91
119.000000 -33.000000 56.679844 116 116 116
120.000000 -33.000000 58.805340 125 125 125
121.000000 -33.000000 60.576584 128 128 128
122.000000 -33.000000 61.639332 129 129 129
123.000000 -33.000000 62.347828 129 129 129
124.000000 -33.000000 62.347828 132 132 132
125.000000 -33.000000 61.993580 134 134 134
126.000000 -33.000000 60.930832 133 133 133
127.000000 -33.000000 60.576584 133 133 133
128.000000 -33.000000 60.576584 133 133 133
129.000000 -33.000000 61.285084 135 135 135
130.000000 -33.000000 60.576584 135 135 135
131.000000 -33.000000 60.222336 136 136 136
132.000000 -33.000000 57.388344 137 137 137
133.000000 -33.000000 57.388344 137 137 137
134.000000 -33.000000 58.805340 141 141 141
135.000000 -33.000000 60.930832 147 147 147
136.000000 -33.000000 61.285084 150 150 150
137.000000 -33.000000 61.285084 149 149 149
138.000000 -33.000000 61.285084 148 148 148
139.000000 -33.000000 60.930832 149 149 149
140.000000 -33.000000 61.285084 152 152 152
141.000000 -33.000000 61.639332 154 154 154
142.000000 -33.000000 62.347828 157 157 157
143.000000 -33.000000 62.347828 160 160 160
144.000000 -33.000000 63.056328 160 160 160
145.000000 -33.000000 62.702080 158 158 158
146.000000 -33.000000 62.702080 155 155 155
147.000000 -33.000000 62.347828 151 151 151
148.000000 -33.000000 62.347828 150 150 150
149.000000 -33.000000 63.056328 149 149 149
150.000000 -33.000000 63.056328 150 150 150
151.000000 -33.000000 62.347828 151 151 151
152.000000 -33.000000 61.639332 149 149 149
153.000000 -33.000000 61.639332 147 147 147
154.000000 -33.000000 61.285084 154 154 154
155.000000 -33.000000 18.775198 163 163 163
156.000000 -33.000000 18.066700 168 168 168
157.000000 -33.000000 17.358202 175 175 175
158.000000 -33.000000 17.003954 173 173 173
63.000000 -34.000000 164.371552 63 63 63
64.000000 -34.000000 165.434296 60 60 60
65.000000 -34.000000 165.788544 70 70 70
66.000000 -34.000000 166.142792 71 71 71
67.000000 -34.000000 168.268295 71 71 71
68.000000 -34.000000 169.331039 84 84 84
69.000000 -34.000000 168.622543 87 87 87
70.000000 -34.000000 167.559784 61 61 61
71.000000 -34.000000 165.788544 64 64 64
72.000000 -34.000000 165.434296 119 119 119
73.000000 -34.000000 166.142792 152 152 152
74.000000 -34.000000 168.622543 142 142 142
75.000000 -34.000000 168.976791 138 138 138
76.000000 -34.000000 169.685287 161 161 161
77.000000 -34.000000 168.976791 152 152 152
78.000000 -34.000000 168.622543 132 132 132
79.000000 -34.000000 168.622543 135 135 135
80.000000 -34.000000 169.685287 149 149 149
81.000000 -34.000000 170.039536 158 158 158
82.000000 -34.000000 170.393784 164 164 164
83.000000 -34.000000 170.393784 181 181 181
84.000000 -34.000000 170.748032 207 207 207
85.000000 -34.000000 171.810776 223 223 223
86.000000 -34.000000 171.456528 229 229 229
87.000000 -34.000000 170.039536 223 223 223
88.000000 -34.000000 169.331039 215 215 215
89.000000 -34.000000 169.331039 208 208 208
90.000000 -34.000000 170.039536 197 197 197
91.000000 -34.000000 170.039536 184 184 184
92.000000 -34.000000 169.685287 189 189 189
93.000000 -34.000000 168.976791 176 176 176
94.000000 -34.000000 168.268295 146 146 146
95.000000 -34.000000 161.183304 144 144 144
96.000000 -34.000000 164.371552 150 150 150
97.000000 -34.000000 166.497040 160 160 160
98.000000 -34.000000 168.268295 176 176 176
99.000000 -34.000000 168.268295 193 193 193
100.000000 -34.000000 168.268295 191 191 191
101.000000 -34.000000 168.268295 162 162 162
102.000000 -34.000000 168.976791 129 129 129
103.000000 -34.000000 170.039536 111 111 111
104.000000 -34.000000 170.039536 94 94 94
105.000000 -34.000000 170.039536 81 81 81
106.000000 -34.000000 171.102280 79 79 79
107.000000 -34.000000 171.810776 82 82 82
108.000000 -34.000000 171.102280 73 73 73
109.000000 -34.000000 170.039536 69 69 69
110.000000 -34.000000 160.120560 72 72 72
111.000000 -34.000000 158.703568 70 70 70
112.000000 -34.000000 159.057816 63 63 63
113.000000 -34.000000 160.120560 55 55 55
114.000000 -34.000000 160.829056 50 50 50
115.000000 -34.000000 160.120560 48 48 48
116.000000 -34.000000 54.908600 54 54 54
117.000000 -34.000000 54.554352 63 63 63
118.000000 -34.000000 54.908600 84 84 84
119.000000 -34.000000 56.679844 114 114 114
120.000000 -34.000000 58.805340 126 126 126
121.000000 -34.000000 60.222336 130 130 130
122.000000 -34.000000 61.639332 130 130 130
123.000000 -34.000000 62.347828 130 130 130
124.000000 -34.000000 62.347828 131 131 131
125.000000 -34.000000 61.993580 133 133 133
126.000000 -34.000000 60.222336 132 132 132
127.000000 -34.000000 60.222336 131 131 131
128.000000 -34.000000 60.930832 132 132 132
129.000000 -34.000000 61.285084 133 133 133
130.000000 -34.000000 60.930832 134 134 134
131.000000 -34.000000 58.805340 134 134 134
132.000000 -34.000000 56.325596 135 135 135
133.000000 -34.000000 56.679844 136 136 136
134.000000 -34.000000 58.451092 140 140 140
135.000000 -34.000000 60.930832 145 145 145
136.000000 -34.000000 61.285084 149 149 149
137.000000 -34.000000 61.285084 147 147 147
138.000000 -34.000000 61.285084 145 145 145
139.000000 -34.000000 60.930832 147 147 147
140.000000 -34.000000 61.285084 150 150 150
141.000000 -34.000000 61.993580 153 153 153
142.000000 -34.000000 62.347828 155 155 155
143.000000 -34.000000 62.702080 158 158 158
144.000000 -34.000000 63.056328 159 159 159
145.000000 -34.000000 63.056328 157 157 157
146.000000 -34.000000 63.764824 153 153 153
147.000000 -34.000000 63.056328 150 150 150
148.000000 -34.000000 63.056328 146 146 146
149.000000 -34.000000 63.056328 145 145 145
150.000000 -34.000000 62.702080 146 146 146
151.000000 -34.000000 61.993580 147 147 147
152.000000 -34.000000 61.639332 144 144 144
153.000000 -34.000000 61.639332 144 144 144
154.000000 -34.000000 61.285084 151 151 151
155.000000 -34.000000 28.339922 160 160 160
156.000000 -34.000000 18.420950 167 167 167
157.000000 -34.000000 17.358202 175 175 175
158.000000 -34.000000 17.003954 174 174 174
63.000000 -35.000000 164.017303 61 61 61
64.000000 -35.000000 164.371552 55 55 55
65.000000 -35.000000 164.017303 65 65 65
66.000000 -35.000000 164.371552 70 70 70
67.000000 -35.000000 164.371552 74 74 74
68.000000 -35.000000 167.914047 96 96 96
69.000000 -35.000000 167.559784 105 105 105
70.000000 -35.000000 165.434296 72 72 72
71.000000 -35.000000 165.080048 76 76 76
72.000000 -35.000000 164.725800 136 136 136
73.000000 -35.000000 164.725800 166 166 166
74.000000 -35.000000 166.851288 160 160 160
75.000000 -35.000000 168.622543 154 154 154
76.000000 -35.000000 168.622543 161 161 161
77.000000 -35.000000 168.268295 159 159 159
78.000000 -35.000000 167.559784 148 148 148
79.000000 -35.000000 166.497040 151 151 151
80.000000 -35.000000 168.622543 161 161 161
81.000000 -35.000000 169.331039 165 165 165
82.000000 -35.000000 170.039536 166 166 166
83.000000 -35.000000 170.039536 184 184 184
84.000000 -35.000000 170.039536 207 207 207
85.000000 -35.000000 169.685287 220 220 220
86.000000 -35.000000 168.976791 223 223 223
87.000000 -35.000000 167.559784 218 218 218
88.000000 -35.000000 166.497040 211 211 211
89.000000 -35.000000 167.914047 207 207 207
90.000000 -35.000000 168.976791 198 198 198
91.000000 -35.000000 168.976791 188 188 188
92.000000 -35.000000 168.622543 205 205 205
93.000000 -35.000000 168.268295 198 198 198
94.000000 -35.000000 160.829056 159 159 159
95.000000 -35.000000 160.474808 152 152 152
96.000000 -35.000000 160.829056 156 156 156
97.000000 -35.000000 164.371552 154 154 154
98.000000 -35.000000 167.914047 166 166 166
99.000000 -35.000000 167.914047 190 190 190
100.000000 -35.000000 167.914047 199 199 199
101.000000 -35.000000 164.371552 182 182 182
102.000000 -35.000000 164.371552 153 153 153
103.000000 -35.000000 164.371552 129 129 129
104.000000 -35.000000 164.725800 108 108 108
105.000000 -35.000000 166.497040 88 88 88
106.000000 -35.000000 169.331039 78 78 78
107.000000 -35.000000 170.393784 81 81 81
108.000000 -35.000000 170.039536 78 78 78
109.000000 -35.000000 169.331039 73 73 73
110.000000 -35.000000 158.349319 74 74 74
111.000000 -35.000000 157.995071 73 73 73
112.000000 -35.000000 158.349319 65 65 65
113.000000 -35.000000 158.703568 53 53 53
114.000000 -35.000000 160.120560 48 48 48
115.000000 -35.000000 160.120560 50 50 50
116.000000 -35.000000 57.388344 60 60 60
117.000000 -35.000000 55.617096 70 70 70
118.000000 -35.000000 55.617096 90 90 90
119.000000 -35.000000 56.679844 119 119 119
120.000000 -35.000000 58.805340 128 128 128
121.000000 -35.000000 60.222336 130 130 130
122.000000 -35.000000 60.930832 129 129 129
123.000000 -35.000000 61.639332 129 129 129
124.000000 -35.000000 61.993580 129 129 129
125.000000 -35.000000 60.930832 132 132 132
126.000000 -35.000000 60.222336 131 131 131
127.000000 -35.000000 60.222336 130 130 130
128.000000 -35.000000 60.576584 130 130 130
129.000000 -35.000000 60.930832 130 130 130
130.000000 -35.000000 58.805340 131 131 131
131.000000 -35.000000 56.325596 132 132 132
132.000000 -35.000000 55.971348 133 133 133
133.000000 -35.000000 55.971348 133 133 133
134.000000 -35.000000 58.451092 136 136 136
135.000000 -35.000000 60.930832 141 141 141
136.000000 -35.000000 61.285084 144 144 144
137.000000 -35.000000 61.285084 142 142 142
138.000000 -35.000000 60.930832 141 141 141
139.000000 -35.000000 60.576584 144 144 144
140.000000 -35.000000 60.930832 146 146 146
141.000000 -35.000000 61.639332 149 149 149
142.000000 -35.000000 62.347828 152 152 152
143.000000 -35.000000 62.347828 154 154 154
144.000000 -35.000000 63.056328 156 156 156
145.000000 -35.000000 63.764824 155 155 155
146.000000 -35.000000 63.764824 152 152 152
147.000000 -35.000000 63.764824 149 149 149
148.000000 -35.000000 63.056328 144 144 144
149.000000 -35.000000 62.702080 141 141 141
150.000000 -35.000000 62.347828 142 142 142
151.000000 -35.000000 61.285084 143 143 143
152.000000 -35.000000 60.576584 141 141 141
153.000000 -35.000000 60.576584 144 144 144
154.000000 -35.000000 60.576584 150 150 150
155.000000 -35.000000 60.576584 158 158 158
156.000000 -35.000000 19.129448 164 164 164
157.000000 -35.000000 17.712452 170 170 170
158.000000 -35.000000 17.358202 171 171 171
63.000000 -36.000000 163.308807 59 59 59
64.000000 -36.000000 163.663055 51 51 51
65.000000 -36.000000 163.308807 61 61 61
66.000000 -36.000000 162.600311 71 71 71
67.000000 -36.000000 162.600311 76 76 76
68.000000 -36.000000 162.600311 93 93 93
69.000000 -36.000000 163.663055 91 91 91
70.000000 -36.000000 164.371552 66 66 66
71.000000 -36.000000 164.371552 84 84 84
72.000000 -36.000000 164.017303 146 146 146
