ply
		format ascii 1.0
		element vertex 8529
		property float x
		property float y
		property float z
		property uchar red
		property uchar green
		property uchar blue
		end_header
145.000000 -23.000000 47.115120 154 152 155
146.000000 -23.000000 44.989628 155 153 157
147.000000 -23.000000 34.007908 154 152 157
148.000000 -23.000000 33.299408 151 151 156
149.000000 -23.000000 33.299408 150 151 155
150.000000 -23.000000 59.868088 150 150 155
151.000000 -23.000000 59.868088 150 150 154
152.000000 -23.000000 58.451092 148 149 153
153.000000 -23.000000 57.742592 146 147 151
154.000000 -23.000000 57.388344 146 147 152
155.000000 -23.000000 18.066700 149 151 156
156.000000 -23.000000 16.295456 150 153 161
157.000000 -23.000000 15.941206 154 157 170
158.000000 -23.000000 15.586957 151 156 170
63.000000 -24.000000 164.017303 58 56 59
64.000000 -24.000000 164.371552 51 49 51
65.000000 -24.000000 164.371552 49 48 48
66.000000 -24.000000 164.371552 50 49 45
67.000000 -24.000000 164.725800 50 49 44
68.000000 -24.000000 164.725800 58 57 52
69.000000 -24.000000 165.788544 61 58 54
70.000000 -24.000000 166.497040 58 54 50
71.000000 -24.000000 166.497040 51 47 45
72.000000 -24.000000 167.914047 45 41 39
73.000000 -24.000000 168.268295 54 48 46
74.000000 -24.000000 168.622543 97 86 81
75.000000 -24.000000 168.622543 152 137 131
76.000000 -24.000000 168.622543 180 163 159
77.000000 -24.000000 168.268295 197 176 174
78.000000 -24.000000 168.622543 210 187 186
79.000000 -24.000000 170.393784 219 196 196
80.000000 -24.000000 171.810776 227 203 203
81.000000 -24.000000 172.165024 231 208 209
82.000000 -24.000000 173.582031 232 210 213
83.000000 -24.000000 173.582031 236 214 218
84.000000 -24.000000 173.936279 239 217 222
85.000000 -24.000000 173.936279 241 219 224
86.000000 -24.000000 173.936279 242 220 225
87.000000 -24.000000 173.582031 242 220 224
88.000000 -24.000000 173.582031 241 218 221
89.000000 -24.000000 173.227783 240 217 216
90.000000 -24.000000 172.165024 239 215 212
91.000000 -24.000000 172.873520 239 213 211
92.000000 -24.000000 173.936279 238 210 209
93.000000 -24.000000 174.999023 231 207 205
94.000000 -24.000000 174.999023 216 194 191
95.000000 -24.000000 174.999023 186 167 165
96.000000 -24.000000 174.999023 142 130 129
97.000000 -24.000000 174.290527 104 98 96
98.000000 -24.000000 172.873520 82 78 76
99.000000 -24.000000 171.810776 72 69 70
100.000000 -24.000000 171.810776 71 69 72
101.000000 -24.000000 171.102280 72 70 73
102.000000 -24.000000 171.102280 66 64 67
103.000000 -24.000000 170.039536 59 57 60
104.000000 -24.000000 167.205536 57 55 58
105.000000 -24.000000 166.851288 59 57 61
106.000000 -24.000000 167.205536 60 58 62
107.000000 -24.000000 167.559784 63 62 65
108.000000 -24.000000 167.559784 65 64 67
109.000000 -24.000000 157.640823 61 60 62
110.000000 -24.000000 157.995071 60 58 61
111.000000 -24.000000 157.640823 62 60 62
112.000000 -24.000000 157.286575 65 63 63
113.000000 -24.000000 157.286575 81 76 70
114.000000 -24.000000 157.286575 84 78 70
115.000000 -24.000000 56.679844 83 77 74
116.000000 -24.000000 57.742592 94 89 85
117.000000 -24.000000 57.742592 102 95 84
118.000000 -24.000000 57.742592 121 109 95
119.000000 -24.000000 57.388344 137 122 105
120.000000 -24.000000 57.742592 140 124 106
121.000000 -24.000000 58.096840 138 125 106
122.000000 -24.000000 58.805340 139 126 107
123.000000 -24.000000 59.159588 139 126 109
124.000000 -24.000000 60.222336 141 128 112
125.000000 -24.000000 60.222336 145 132 116
126.000000 -24.000000 59.159588 144 132 117
127.000000 -24.000000 58.096840 142 133 120
128.000000 -24.000000 58.805340 143 135 121
129.000000 -24.000000 59.513836 143 135 121
130.000000 -24.000000 60.576584 142 134 122
131.000000 -24.000000 60.576584 142 135 125
132.000000 -24.000000 60.222336 143 136 129
133.000000 -24.000000 59.159588 145 138 134
134.000000 -24.000000 60.576584 145 139 135
135.000000 -24.000000 60.930832 147 142 138
136.000000 -24.000000 60.930832 149 144 140
137.000000 -24.000000 60.576584 148 143 139
138.000000 -24.000000 60.222336 148 143 139
139.000000 -24.000000 59.159588 149 145 142
140.000000 -24.000000 57.742592 150 148 145
141.000000 -24.000000 57.742592 150 149 147
142.000000 -24.000000 58.451092 152 150 151
143.000000 -24.000000 59.868088 153 151 154
144.000000 -24.000000 60.222336 153 151 154
145.000000 -24.000000 61.285084 154 152 155
146.000000 -24.000000 61.285084 155 155 159
147.000000 -24.000000 53.137356 155 155 160
148.000000 -24.000000 53.137356 153 155 161
149.000000 -24.000000 59.868088 151 154 160
150.000000 -24.000000 60.576584 150 152 158
151.000000 -24.000000 60.576584 149 151 157
152.000000 -24.000000 60.222336 148 149 154
153.000000 -24.000000 58.805340 146 148 153
154.000000 -24.000000 58.805340 147 150 156
155.000000 -24.000000 58.805340 150 153 161
156.000000 -24.000000 16.295456 152 156 167
157.000000 -24.000000 15.586957 156 161 174
158.000000 -24.000000 15.586957 154 161 175
63.000000 -25.000000 163.663055 58 57 59
64.000000 -25.000000 164.017303 49 48 50
65.000000 -25.000000 164.371552 49 47 48
66.000000 -25.000000 164.371552 49 48 44
67.000000 -25.000000 164.725800 51 49 45
68.000000 -25.000000 164.725800 58 56 52
69.000000 -25.000000 165.080048 60 57 53
70.000000 -25.000000 165.080048 56 51 47
71.000000 -25.000000 165.080048 48 42 40
72.000000 -25.000000 165.788544 45 40 39
73.000000 -25.000000 166.142792 65 58 56
74.000000 -25.000000 167.205536 125 113 109
75.000000 -25.000000 167.205536 170 154 150
76.000000 -25.000000 167.205536 186 169 164
77.000000 -25.000000 166.497040 200 180 177
78.000000 -25.000000 166.497040 211 190 188
79.000000 -25.000000 168.268295 221 198 197
80.000000 -25.000000 170.393784 228 203 204
81.000000 -25.000000 171.810776 230 207 208
82.000000 -25.000000 172.165024 232 209 212
83.000000 -25.000000 173.936279 235 213 216
84.000000 -25.000000 175.707520 237 215 219
85.000000 -25.000000 177.124512 239 217 221
86.000000 -25.000000 179.250015 240 218 222
87.000000 -25.000000 179.250015 241 218 222
88.000000 -25.000000 175.707520 240 217 220
89.000000 -25.000000 174.290527 240 215 217
90.000000 -25.000000 174.290527 240 214 214
91.000000 -25.000000 175.353271 240 213 211
92.000000 -25.000000 175.707520 239 212 210
93.000000 -25.000000 175.707520 234 210 207
94.000000 -25.000000 175.707520 225 203 199
95.000000 -25.000000 175.707520 204 185 182
96.000000 -25.000000 175.707520 160 147 145
97.000000 -25.000000 175.707520 115 108 105
98.000000 -25.000000 174.999023 92 87 84
99.000000 -25.000000 174.999023 75 71 72
100.000000 -25.000000 174.290527 70 68 71
101.000000 -25.000000 173.936279 70 68 71
102.000000 -25.000000 172.873520 70 68 71
103.000000 -25.000000 171.810776 64 62 65
104.000000 -25.000000 166.851288 59 57 60
105.000000 -25.000000 164.371552 58 56 60
106.000000 -25.000000 163.663055 62 61 66
107.000000 -25.000000 163.663055 67 66 74
108.000000 -25.000000 163.663055 67 67 73
109.000000 -25.000000 163.663055 63 62 65
110.000000 -25.000000 160.829056 59 57 60
111.000000 -25.000000 158.703568 60 58 61
112.000000 -25.000000 158.349319 63 61 63
113.000000 -25.000000 158.703568 72 69 67
114.000000 -25.000000 158.703568 85 80 73
115.000000 -25.000000 158.703568 86 80 75
116.000000 -25.000000 61.639332 90 86 84
117.000000 -25.000000 60.222336 98 92 85
118.000000 -25.000000 60.222336 116 106 93
119.000000 -25.000000 59.159588 136 123 105
120.000000 -25.000000 59.159588 139 126 107
121.000000 -25.000000 59.868088 139 126 107
122.000000 -25.000000 60.222336 140 127 109
123.000000 -25.000000 60.930832 140 127 110
124.000000 -25.000000 61.639332 141 129 113
125.000000 -25.000000 60.930832 144 132 116
126.000000 -25.000000 60.222336 143 133 119
127.000000 -25.000000 59.513836 142 134 122
128.000000 -25.000000 59.513836 142 135 124
129.000000 -25.000000 60.222336 143 135 124
130.000000 -25.000000 60.930832 142 135 125
131.000000 -25.000000 60.930832 143 136 126
132.000000 -25.000000 60.576584 144 137 130
133.000000 -25.000000 60.576584 145 139 135
134.000000 -25.000000 60.930832 145 140 136
135.000000 -25.000000 61.285084 148 143 139
136.000000 -25.000000 61.285084 150 145 141
137.000000 -25.000000 60.576584 149 144 140
138.000000 -25.000000 60.576584 147 143 139
139.000000 -25.000000 60.222336 148 146 142
140.000000 -25.000000 57.742592 151 149 147
141.000000 -25.000000 57.742592 152 151 151
142.000000 -25.000000 58.451092 154 152 154
143.000000 -25.000000 60.222336 155 153 156
144.000000 -25.000000 61.285084 155 153 157
145.000000 -25.000000 61.639332 154 152 157
146.000000 -25.000000 62.347828 155 155 161
147.000000 -25.000000 62.347828 155 156 164
148.000000 -25.000000 61.285084 154 157 164
149.000000 -25.000000 61.285084 154 157 164
150.000000 -25.000000 60.930832 152 155 163
151.000000 -25.000000 60.576584 151 154 161
152.000000 -25.000000 60.576584 149 152 158
153.000000 -25.000000 60.222336 148 151 157
154.000000 -25.000000 60.930832 150 153 160
155.000000 -25.000000 61.285084 152 157 165
156.000000 -25.000000 61.285084 156 161 174
157.000000 -25.000000 15.586957 160 166 185
158.000000 -25.000000 14.878459 158 165 186
63.000000 -26.000000 163.663055 56 55 58
64.000000 -26.000000 164.017303 46 44 47
65.000000 -26.000000 164.371552 47 45 45
66.000000 -26.000000 164.725800 49 46 43
67.000000 -26.000000 165.080048 51 47 43
68.000000 -26.000000 165.080048 55 51 47
69.000000 -26.000000 165.080048 61 56 52
70.000000 -26.000000 164.725800 59 54 51
71.000000 -26.000000 165.080048 49 44 40
72.000000 -26.000000 165.080048 45 40 38
73.000000 -26.000000 165.788544 82 75 72
74.000000 -26.000000 166.497040 144 133 130
75.000000 -26.000000 166.851288 172 157 155
76.000000 -26.000000 166.142792 185 169 167
77.000000 -26.000000 166.142792 196 180 178
78.000000 -26.000000 165.434296 209 192 190
79.000000 -26.000000 166.497040 220 201 200
80.000000 -26.000000 168.268295 228 206 207
81.000000 -26.000000 170.393784 232 210 212
82.000000 -26.000000 172.165024 234 213 216
83.000000 -26.000000 175.353271 236 214 217
84.000000 -26.000000 177.124512 237 215 218
85.000000 -26.000000 179.958511 239 216 221
86.000000 -26.000000 181.021255 240 217 223
87.000000 -26.000000 181.021255 241 217 223
88.000000 -26.000000 179.604263 241 217 223
89.000000 -26.000000 179.250015 242 219 223
90.000000 -26.000000 178.541504 243 221 221
91.000000 -26.000000 178.541504 244 220 218
92.000000 -26.000000 178.541504 244 218 216
93.000000 -26.000000 176.770264 239 215 212
94.000000 -26.000000 175.707520 231 210 207
95.000000 -26.000000 175.707520 217 199 198
96.000000 -26.000000 175.707520 183 169 169
97.000000 -26.000000 176.770264 131 123 121
98.000000 -26.000000 176.770264 103 96 95
99.000000 -26.000000 176.770264 86 81 82
100.000000 -26.000000 175.707520 75 71 74
101.000000 -26.000000 175.707520 71 68 71
102.000000 -26.000000 175.707520 73 71 74
103.000000 -26.000000 174.999023 71 69 72
104.000000 -26.000000 161.183304 65 63 66
105.000000 -26.000000 160.829056 62 60 63
106.000000 -26.000000 160.120560 62 61 65
107.000000 -26.000000 159.057816 67 66 75
108.000000 -26.000000 159.057816 65 64 74
109.000000 -26.000000 160.474808 63 62 67
110.000000 -26.000000 160.829056 60 58 61
111.000000 -26.000000 160.474808 58 56 59
112.000000 -26.000000 158.703568 61 59 61
113.000000 -26.000000 158.703568 66 64 63
114.000000 -26.000000 159.057816 79 76 71
115.000000 -26.000000 159.057816 84 79 74
116.000000 -26.000000 62.702080 85 81 80
117.000000 -26.000000 61.993580 95 89 82
118.000000 -26.000000 61.993580 116 105 91
119.000000 -26.000000 60.222336 136 123 104
120.000000 -26.000000 59.868088 139 126 107
121.000000 -26.000000 60.222336 140 128 109
122.000000 -26.000000 60.930832 141 128 110
123.000000 -26.000000 61.639332 140 127 111
124.000000 -26.000000 61.639332 141 129 113
125.000000 -26.000000 61.639332 142 132 117
126.000000 -26.000000 60.576584 142 133 119
127.000000 -26.000000 60.222336 143 135 123
128.000000 -26.000000 60.222336 143 136 125
129.000000 -26.000000 60.222336 143 136 126
130.000000 -26.000000 61.285084 143 136 126
131.000000 -26.000000 61.285084 144 137 127
132.000000 -26.000000 60.576584 144 138 130
133.000000 -26.000000 60.576584 145 140 136
134.000000 -26.000000 61.285084 146 141 138
135.000000 -26.000000 61.639332 148 143 140
136.000000 -26.000000 61.639332 150 145 141
137.000000 -26.000000 61.285084 150 145 141
138.000000 -26.000000 60.576584 148 144 140
139.000000 -26.000000 58.805340 149 146 143
140.000000 -26.000000 57.388344 150 148 145
141.000000 -26.000000 57.742592 151 150 148
142.000000 -26.000000 58.451092 154 152 154
143.000000 -26.000000 60.930832 158 156 160
144.000000 -26.000000 61.285084 157 156 160
145.000000 -26.000000 62.347828 156 156 161
146.000000 -26.000000 62.347828 157 158 164
147.000000 -26.000000 62.347828 156 159 167
148.000000 -26.000000 62.347828 155 158 166
149.000000 -26.000000 61.993580 156 159 167
150.000000 -26.000000 61.285084 155 158 168
151.000000 -26.000000 60.930832 153 156 166
152.000000 -26.000000 60.576584 151 154 162
153.000000 -26.000000 60.576584 150 154 162
154.000000 -26.000000 60.930832 151 155 165
155.000000 -26.000000 62.347828 154 160 170
156.000000 -26.000000 62.347828 159 166 180
157.000000 -26.000000 15.586957 161 170 190
158.000000 -26.000000 14.524210 156 165 186
63.000000 -27.000000 164.017303 54 53 55
64.000000 -27.000000 164.371552 42 41 42
65.000000 -27.000000 165.080048 47 44 42
66.000000 -27.000000 165.080048 49 45 41
67.000000 -27.000000 165.434296 48 43 40
68.000000 -27.000000 165.434296 51 46 42
69.000000 -27.000000 165.434296 65 60 57
70.000000 -27.000000 165.080048 70 65 61
71.000000 -27.000000 165.434296 58 53 49
72.000000 -27.000000 165.434296 52 46 43
73.000000 -27.000000 166.142792 94 87 84
74.000000 -27.000000 166.497040 134 125 123
75.000000 -27.000000 166.851288 148 138 138
76.000000 -27.000000 166.142792 163 152 153
77.000000 -27.000000 165.080048 180 169 169
78.000000 -27.000000 165.080048 193 182 182
79.000000 -27.000000 165.434296 205 191 193
80.000000 -27.000000 166.497040 220 204 206
81.000000 -27.000000 168.268295 231 215 218
82.000000 -27.000000 171.102280 237 221 227
83.000000 -27.000000 174.290527 240 221 227
84.000000 -27.000000 177.478760 240 220 225
85.000000 -27.000000 179.250015 242 221 228
86.000000 -27.000000 181.021255 244 223 231
87.000000 -27.000000 181.021255 243 222 233
88.000000 -27.000000 181.021255 244 223 236
89.000000 -27.000000 179.604263 247 227 237
90.000000 -27.000000 179.604263 246 227 233
91.000000 -27.000000 179.250015 244 224 226
92.000000 -27.000000 179.250015 242 221 221
93.000000 -27.000000 178.541504 235 214 214
94.000000 -27.000000 176.416016 226 207 207
95.000000 -27.000000 174.999023 213 199 199
96.000000 -27.000000 175.353271 191 179 180
97.000000 -27.000000 176.770264 151 140 139
98.000000 -27.000000 176.770264 115 106 105
99.000000 -27.000000 176.770264 99 92 92
100.000000 -27.000000 175.707520 86 81 81
101.000000 -27.000000 175.707520 76 73 75
102.000000 -27.000000 175.707520 73 71 74
103.000000 -27.000000 174.999023 72 70 73
104.000000 -27.000000 161.183304 68 66 69
105.000000 -27.000000 160.829056 67 65 68
106.000000 -27.000000 159.412064 64 62 66
107.000000 -27.000000 159.057816 62 60 66
108.000000 -27.000000 159.057816 61 58 66
109.000000 -27.000000 159.412064 62 60 64
110.000000 -27.000000 160.474808 62 60 63
111.000000 -27.000000 159.412064 59 57 60
112.000000 -27.000000 158.349319 60 58 60
113.000000 -27.000000 158.349319 62 61 61
114.000000 -27.000000 158.703568 71 69 67
115.000000 -27.000000 158.703568 79 75 72
116.000000 -27.000000 63.056328 79 74 72
117.000000 -27.000000 62.702080 91 85 77
118.000000 -27.000000 62.702080 119 108 92
119.000000 -27.000000 58.805340 136 123 104
120.000000 -27.000000 59.159588 139 126 108
121.000000 -27.000000 60.222336 139 127 111
122.000000 -27.000000 60.930832 139 128 112
123.000000 -27.000000 61.285084 140 128 112
124.000000 -27.000000 61.639332 141 130 114
125.000000 -27.000000 61.285084 141 132 116
126.000000 -27.000000 60.576584 142 133 118
127.000000 -27.000000 59.513836 143 135 121
128.000000 -27.000000 59.513836 144 136 123
129.000000 -27.000000 60.222336 144 137 126
130.000000 -27.000000 60.930832 143 137 127
131.000000 -27.000000 60.930832 143 138 129
132.000000 -27.000000 59.159588 144 139 132
133.000000 -27.000000 59.868088 146 141 138
134.000000 -27.000000 60.576584 148 143 140
135.000000 -27.000000 61.639332 149 144 141
136.000000 -27.000000 61.639332 150 145 142
137.000000 -27.000000 61.285084 149 144 140
138.000000 -27.000000 60.222336 147 143 140
139.000000 -27.000000 57.388344 148 146 142
140.000000 -27.000000 57.034096 150 148 145
141.000000 -27.000000 57.034096 151 150 148
142.000000 -27.000000 58.451092 155 154 156
143.000000 -27.000000 60.576584 160 158 163
144.000000 -27.000000 61.285084 159 159 164
145.000000 -27.000000 61.639332 158 158 163
146.000000 -27.000000 61.993580 158 158 164
147.000000 -27.000000 61.993580 157 159 165
148.000000 -27.000000 62.347828 156 158 165
149.000000 -27.000000 62.347828 156 158 167
150.000000 -27.000000 62.347828 154 158 169
151.000000 -27.000000 61.285084 152 156 167
152.000000 -27.000000 60.576584 152 155 164
153.000000 -27.000000 59.159588 152 156 165
154.000000 -27.000000 60.576584 153 157 168
155.000000 -27.000000 61.285084 157 163 174
156.000000 -27.000000 61.285084 159 168 183
157.000000 -27.000000 14.878459 159 169 188
158.000000 -27.000000 14.524210 155 166 184
63.000000 -28.000000 164.371552 55 55 56
64.000000 -28.000000 165.434296 47 46 44
65.000000 -28.000000 166.497040 52 50 45
66.000000 -28.000000 166.497040 51 46 42
67.000000 -28.000000 166.851288 46 41 37
68.000000 -28.000000 166.851288 51 48 44
69.000000 -28.000000 166.497040 72 68 64
70.000000 -28.000000 166.142792 79 74 71
71.000000 -28.000000 166.142792 65 60 57
72.000000 -28.000000 166.142792 54 49 46
73.000000 -28.000000 166.497040 81 74 71
74.000000 -28.000000 167.559784 98 91 91
75.000000 -28.000000 168.622543 106 100 104
76.000000 -28.000000 167.205536 117 112 115
77.000000 -28.000000 165.434296 132 127 130
78.000000 -28.000000 165.434296 147 141 144
79.000000 -28.000000 165.434296 164 156 159
80.000000 -28.000000 166.497040 190 179 182
81.000000 -28.000000 168.268295 214 204 207
82.000000 -28.000000 169.331039 231 220 226
83.000000 -28.000000 172.519272 240 226 236
84.000000 -28.000000 174.999023 244 228 240
85.000000 -28.000000 177.478760 245 231 243
86.000000 -28.000000 179.250015 244 231 244
87.000000 -28.000000 181.021255 240 227 240
88.000000 -28.000000 181.021255 237 224 238
89.000000 -28.000000 179.604263 236 223 234
90.000000 -28.000000 178.541504 229 217 224
91.000000 -28.000000 179.250015 223 211 215
92.000000 -28.000000 179.250015 219 207 211
93.000000 -28.000000 176.770264 212 199 203
94.000000 -28.000000 170.039536 199 188 191
95.000000 -28.000000 168.976791 182 173 176
96.000000 -28.000000 170.039536 165 158 160
97.000000 -28.000000 173.936279 142 135 136
98.000000 -28.000000 173.936279 117 110 111
99.000000 -28.000000 174.290527 103 96 97
100.000000 -28.000000 174.644775 94 89 89
101.000000 -28.000000 174.290527 84 81 83
102.000000 -28.000000 174.644775 75 73 77
103.000000 -28.000000 173.582031 70 68 72
104.000000 -28.000000 161.183304 66 64 68
105.000000 -28.000000 160.829056 67 66 71
106.000000 -28.000000 159.412064 68 67 73
107.000000 -28.000000 159.057816 65 63 69
108.000000 -28.000000 159.057816 61 58 63
109.000000 -28.000000 159.057816 61 59 62
110.000000 -28.000000 159.057816 62 60 63
111.000000 -28.000000 158.703568 61 59 62
112.000000 -28.000000 158.349319 60 58 61
113.000000 -28.000000 158.349319 61 59 61
114.000000 -28.000000 158.703568 66 63 65
115.000000 -28.000000 158.703568 73 70 70
116.000000 -28.000000 63.056328 74 70 68
117.000000 -28.000000 61.639332 90 84 76
118.000000 -28.000000 57.742592 122 110 95
119.000000 -28.000000 57.388344 134 121 103
120.000000 -28.000000 57.742592 136 124 106
121.000000 -28.000000 59.159588 137 127 109
122.000000 -28.000000 60.222336 138 128 111
123.000000 -28.000000 60.930832 139 129 112
124.000000 -28.000000 61.285084 141 131 115
125.000000 -28.000000 60.930832 141 132 117
126.000000 -28.000000 59.513836 141 133 118
127.000000 -28.000000 58.805340 143 134 122
128.000000 -28.000000 58.805340 144 135 124
129.000000 -28.000000 59.159588 143 136 126
130.000000 -28.000000 60.222336 143 137 128
131.000000 -28.000000 59.159588 143 138 132
132.000000 -28.000000 57.388344 143 138 134
133.000000 -28.000000 57.742592 146 141 138
134.000000 -28.000000 59.868088 148 143 140
135.000000 -28.000000 61.285084 149 145 142
136.000000 -28.000000 61.285084 151 147 144
137.000000 -28.000000 60.576584 150 146 143
138.000000 -28.000000 58.451092 147 145 141
139.000000 -28.000000 57.034096 147 146 142
140.000000 -28.000000 56.679844 148 147 146
141.000000 -28.000000 57.034096 151 149 151
142.000000 -28.000000 58.096840 156 155 158
143.000000 -28.000000 60.222336 161 160 166
144.000000 -28.000000 60.930832 159 160 167
145.000000 -28.000000 61.285084 157 160 166
146.000000 -28.000000 61.639332 157 159 167
147.000000 -28.000000 61.639332 156 158 166
148.000000 -28.000000 61.993580 156 157 164
149.000000 -28.000000 62.347828 156 158 167
150.000000 -28.000000 62.347828 153 158 167
151.000000 -28.000000 61.285084 153 158 166
152.000000 -28.000000 58.805340 153 157 165
153.000000 -28.000000 58.805340 153 157 166
154.000000 -28.000000 59.159588 152 158 167
155.000000 -28.000000 60.222336 157 165 175
156.000000 -28.000000 16.649704 163 171 187
157.000000 -28.000000 15.232708 163 172 192
158.000000 -28.000000 14.524210 160 172 193
63.000000 -29.000000 165.434296 58 58 58
64.000000 -29.000000 166.497040 56 54 52
65.000000 -29.000000 167.559784 58 55 51
66.000000 -29.000000 167.914047 53 48 44
67.000000 -29.000000 168.976791 46 42 38
68.000000 -29.000000 168.976791 57 54 51
69.000000 -29.000000 168.622543 78 74 71
70.000000 -29.000000 166.851288 84 79 75
71.000000 -29.000000 166.497040 68 63 60
72.000000 -29.000000 166.497040 56 51 48
73.000000 -29.000000 167.205536 79 74 71
74.000000 -29.000000 168.622543 102 96 98
75.000000 -29.000000 168.622543 117 112 117
76.000000 -29.000000 168.622543 116 113 117
77.000000 -29.000000 167.205536 110 106 111
78.000000 -29.000000 165.788544 113 109 114
79.000000 -29.000000 166.497040 127 123 127
80.000000 -29.000000 167.205536 152 148 150
81.000000 -29.000000 168.268295 187 181 183
82.000000 -29.000000 169.331039 216 206 210
83.000000 -29.000000 171.456528 231 217 225
84.000000 -29.000000 173.936279 238 223 234
85.000000 -29.000000 175.353271 241 228 239
86.000000 -29.000000 176.061768 238 227 238
87.000000 -29.000000 177.124512 229 219 228
88.000000 -29.000000 177.124512 218 208 215
89.000000 -29.000000 176.770264 206 197 203
90.000000 -29.000000 176.770264 188 180 185
91.000000 -29.000000 177.833008 168 161 166
92.000000 -29.000000 177.833008 159 154 159
93.000000 -29.000000 170.748032 153 149 152
94.000000 -29.000000 168.976791 146 141 144
95.000000 -29.000000 167.914047 136 132 136
96.000000 -29.000000 161.183304 128 126 129
97.000000 -29.000000 162.954559 118 115 119
98.000000 -29.000000 163.308807 109 106 109
99.000000 -29.000000 165.080048 104 100 102
100.000000 -29.000000 171.810776 99 94 96
101.000000 -29.000000 173.582031 89 85 89
102.000000 -29.000000 173.936279 77 75 80
103.000000 -29.000000 173.582031 74 72 76
104.000000 -29.000000 169.331039 71 69 74
105.000000 -29.000000 161.183304 69 68 74
106.000000 -29.000000 161.183304 67 66 74
107.000000 -29.000000 159.057816 67 65 73
108.000000 -29.000000 159.057816 65 63 67
109.000000 -29.000000 159.057816 63 61 63
110.000000 -29.000000 159.057816 64 62 65
111.000000 -29.000000 159.057816 65 63 66
112.000000 -29.000000 158.703568 63 61 64
113.000000 -29.000000 158.703568 62 60 63
114.000000 -29.000000 159.412064 64 62 65
115.000000 -29.000000 158.703568 69 67 69
116.000000 -29.000000 63.056328 74 72 71
117.000000 -29.000000 60.930832 94 88 80
118.000000 -29.000000 54.908600 122 111 96
119.000000 -29.000000 54.908600 133 120 101
120.000000 -29.000000 58.096840 135 123 103
121.000000 -29.000000 59.159588 137 125 106
122.000000 -29.000000 59.868088 138 126 110
123.000000 -29.000000 60.576584 139 129 114
124.000000 -29.000000 60.930832 141 132 118
125.000000 -29.000000 60.930832 142 133 120
126.000000 -29.000000 59.159588 142 133 121
127.000000 -29.000000 58.451092 142 135 124
128.000000 -29.000000 58.451092 142 135 124
129.000000 -29.000000 58.805340 142 135 125
130.000000 -29.000000 59.159588 142 136 127
131.000000 -29.000000 57.742592 143 137 132
132.000000 -29.000000 56.679844 144 139 135
133.000000 -29.000000 56.679844 145 140 137
134.000000 -29.000000 59.868088 147 143 140
135.000000 -29.000000 60.930832 148 146 143
136.000000 -29.000000 60.930832 151 149 145
137.000000 -29.000000 60.576584 151 149 145
138.000000 -29.000000 58.805340 149 148 145
139.000000 -29.000000 57.388344 150 148 147
140.000000 -29.000000 57.034096 151 149 150
141.000000 -29.000000 57.388344 153 151 154
142.000000 -29.000000 58.451092 157 157 160
143.000000 -29.000000 60.222336 161 161 166
144.000000 -29.000000 60.930832 160 161 168
145.000000 -29.000000 61.285084 158 161 168
146.000000 -29.000000 61.285084 158 161 169
147.000000 -29.000000 61.639332 155 159 167
148.000000 -29.000000 61.639332 154 155 163
149.000000 -29.000000 62.347828 154 155 163
150.000000 -29.000000 62.347828 152 155 162
151.000000 -29.000000 61.993580 152 156 163
152.000000 -29.000000 60.576584 152 158 166
153.000000 -29.000000 58.805340 151 158 166
154.000000 -29.000000 58.805340 151 158 166
155.000000 -29.000000 58.451092 159 167 178
156.000000 -29.000000 17.003954 166 175 192
157.000000 -29.000000 16.295456 166 176 198
158.000000 -29.000000 15.232708 164 177 200
63.000000 -30.000000 165.788544 60 61 60
64.000000 -30.000000 166.851288 60 59 55
65.000000 -30.000000 167.914047 61 59 55
66.000000 -30.000000 169.685287 55 50 47
67.000000 -30.000000 169.685287 50 46 43
68.000000 -30.000000 170.039536 67 63 60
69.000000 -30.000000 170.039536 82 78 74
70.000000 -30.000000 168.622543 84 79 75
71.000000 -30.000000 166.851288 69 64 60
72.000000 -30.000000 166.851288 65 60 57
73.000000 -30.000000 166.851288 114 108 106
74.000000 -30.000000 167.914047 153 144 145
75.000000 -30.000000 168.622543 176 165 168
76.000000 -30.000000 168.622543 182 172 172
77.000000 -30.000000 168.268295 169 160 159
78.000000 -30.000000 167.914047 154 146 143
79.000000 -30.000000 167.914047 144 137 135
80.000000 -30.000000 167.914047 148 142 142
81.000000 -30.000000 168.622543 173 165 167
82.000000 -30.000000 170.039536 205 193 196
83.000000 -30.000000 171.456528 224 206 209
84.000000 -30.000000 173.936279 230 212 214
85.000000 -30.000000 174.644775 234 217 220
86.000000 -30.000000 174.999023 234 218 221
87.000000 -30.000000 175.707520 221 208 210
88.000000 -30.000000 175.707520 203 193 194
89.000000 -30.000000 175.707520 185 177 178
90.000000 -30.000000 175.707520 164 156 158
91.000000 -30.000000 176.416016 142 136 138
92.000000 -30.000000 175.707520 132 128 130
93.000000 -30.000000 170.039536 138 133 134
94.000000 -30.000000 167.914047 151 147 148
95.000000 -30.000000 161.183304 163 160 162
96.000000 -30.000000 160.474808 164 162 164
97.000000 -30.000000 161.183304 158 155 159
98.000000 -30.000000 162.954559 146 143 147
99.000000 -30.000000 164.371552 129 124 127
100.000000 -30.000000 167.914047 110 105 107
101.000000 -30.000000 170.748032 95 92 95
102.000000 -30.000000 173.582031 81 79 83
103.000000 -30.000000 173.936279 75 73 77
104.000000 -30.000000 173.582031 75 73 79
105.000000 -30.000000 169.331039 72 70 77
106.000000 -30.000000 169.331039 67 65 72
107.000000 -30.000000 170.393784 64 61 67
108.000000 -30.000000 173.582031 63 61 64
109.000000 -30.000000 174.644775 65 63 66
110.000000 -30.000000 159.412064 67 65 68
111.000000 -30.000000 159.412064 68 66 69
112.000000 -30.000000 159.412064 67 65 67
113.000000 -30.000000 158.703568 65 63 65
114.000000 -30.000000 158.703568 65 63 64
115.000000 -30.000000 109.108704 68 66 66
116.000000 -30.000000 63.056328 77 74 74
117.000000 -30.000000 61.993580 97 92 86
118.000000 -30.000000 58.096840 122 112 98
119.000000 -30.000000 57.388344 133 120 102
120.000000 -30.000000 59.159588 135 122 103
121.000000 -30.000000 59.159588 137 124 105
122.000000 -30.000000 59.868088 137 125 108
123.000000 -30.000000 60.222336 138 128 114
124.000000 -30.000000 60.576584 140 132 120
125.000000 -30.000000 60.576584 140 133 122
126.000000 -30.000000 59.159588 140 133 123
127.000000 -30.000000 58.451092 141 134 124
128.000000 -30.000000 58.096840 141 134 124
129.000000 -30.000000 58.096840 142 135 125
130.000000 -30.000000 58.805340 142 135 126
131.000000 -30.000000 57.742592 143 136 131
132.000000 -30.000000 56.679844 144 138 135
133.000000 -30.000000 56.679844 145 140 137
134.000000 -30.000000 58.805340 147 144 140
135.000000 -30.000000 60.222336 148 147 143
136.000000 -30.000000 60.576584 151 150 146
137.000000 -30.000000 60.576584 150 149 145
138.000000 -30.000000 59.513836 150 148 148
139.000000 -30.000000 58.805340 152 150 152
140.000000 -30.000000 58.451092 153 151 153
141.000000 -30.000000 58.451092 155 153 156
142.000000 -30.000000 59.868088 158 158 162
143.000000 -30.000000 60.930832 161 162 166
144.000000 -30.000000 61.285084 160 163 169
145.000000 -30.000000 61.639332 159 162 169
146.000000 -30.000000 61.639332 158 162 169
147.000000 -30.000000 61.639332 155 158 165
148.000000 -30.000000 61.639332 151 154 160
149.000000 -30.000000 62.347828 152 153 159
150.000000 -30.000000 62.347828 152 154 159
151.000000 -30.000000 62.347828 152 155 160
152.000000 -30.000000 61.639332 150 157 164
153.000000 -30.000000 60.576584 149 156 163
154.000000 -30.000000 58.805340 152 159 166
155.000000 -30.000000 18.420950 161 169 182
156.000000 -30.000000 17.003954 166 177 194
157.000000 -30.000000 17.003954 169 180 202
158.000000 -30.000000 16.295456 165 178 202
63.000000 -31.000000 165.788544 60 61 59
64.000000 -31.000000 166.851288 59 58 55
65.000000 -31.000000 169.331039 64 61 58
66.000000 -31.000000 169.685287 59 54 51
67.000000 -31.000000 170.039536 57 52 49
68.000000 -31.000000 170.039536 75 70 67
69.000000 -31.000000 170.039536 81 76 72
70.000000 -31.000000 169.331039 76 71 64
71.000000 -31.000000 166.851288 62 57 52
72.000000 -31.000000 166.142792 74 68 65
73.000000 -31.000000 166.142792 136 127 124
74.000000 -31.000000 167.205536 173 158 157
75.000000 -31.000000 168.622543 188 171 169
76.000000 -31.000000 168.622543 196 178 175
77.000000 -31.000000 168.622543 197 180 176
78.000000 -31.000000 168.622543 187 172 167
79.000000 -31.000000 168.268295 173 158 151
80.000000 -31.000000 168.622543 164 149 143
81.000000 -31.000000 170.039536 168 154 150
82.000000 -31.000000 170.039536 192 177 173
83.000000 -31.000000 171.456528 218 200 197
84.000000 -31.000000 173.936279 230 212 209
85.000000 -31.000000 174.644775 235 217 216
86.000000 -31.000000 174.999023 239 221 220
87.000000 -31.000000 175.353271 226 210 209
88.000000 -31.000000 175.353271 210 196 193
89.000000 -31.000000 174.999023 199 187 182
90.000000 -31.000000 174.999023 193 179 173
91.000000 -31.000000 175.707520 186 172 166
92.000000 -31.000000 175.707520 184 171 165
93.000000 -31.000000 168.976791 196 183 178
94.000000 -31.000000 163.308807 212 198 197
95.000000 -31.000000 161.891800 224 212 212
96.000000 -31.000000 160.474808 227 217 217
97.000000 -31.000000 160.474808 219 212 214
98.000000 -31.000000 162.954559 206 201 204
99.000000 -31.000000 164.725800 182 176 179
100.000000 -31.000000 167.914047 142 136 139
101.000000 -31.000000 169.685287 109 104 107
102.000000 -31.000000 170.748032 91 88 91
103.000000 -31.000000 173.227783 79 77 80
104.000000 -31.000000 170.393784 75 73 79
105.000000 -31.000000 170.039536 71 69 75
106.000000 -31.000000 170.393784 67 64 70
107.000000 -31.000000 173.582031 62 60 64
108.000000 -31.000000 174.644775 59 57 60
109.000000 -31.000000 174.999023 64 62 65
110.000000 -31.000000 174.999023 70 68 71
111.000000 -31.000000 160.120560 67 65 68
112.000000 -31.000000 159.766312 65 63 65
113.000000 -31.000000 159.412064 70 68 66
114.000000 -31.000000 109.108704 72 71 68
115.000000 -31.000000 107.691704 67 65 62
116.000000 -31.000000 62.347828 72 70 67
117.000000 -31.000000 62.347828 90 86 81
118.000000 -31.000000 58.805340 117 107 96
119.000000 -31.000000 58.805340 131 119 102
120.000000 -31.000000 60.222336 135 122 104
121.000000 -31.000000 60.222336 137 124 106
122.000000 -31.000000 60.222336 137 124 106
123.000000 -31.000000 60.222336 137 127 111
124.000000 -31.000000 60.576584 140 131 119
125.000000 -31.000000 60.576584 141 133 121
126.000000 -31.000000 59.159588 141 133 122
127.000000 -31.000000 58.451092 141 133 123
128.000000 -31.000000 58.096840 141 133 124
129.000000 -31.000000 58.096840 142 134 126
130.000000 -31.000000 58.805340 142 135 129
131.000000 -31.000000 58.805340 143 136 132
132.000000 -31.000000 56.679844 143 137 134
133.000000 -31.000000 56.679844 144 139 136
134.000000 -31.000000 57.742592 146 143 140
135.000000 -31.000000 59.868088 148 147 143
136.000000 -31.000000 60.576584 150 149 145
137.000000 -31.000000 60.576584 150 149 145
138.000000 -31.000000 60.576584 150 149 148
139.000000 -31.000000 59.513836 152 150 152
140.000000 -31.000000 59.868088 153 151 154
141.000000 -31.000000 59.868088 156 154 157
142.000000 -31.000000 60.930832 159 159 162
143.000000 -31.000000 61.639332 160 161 166
144.000000 -31.000000 61.639332 159 161 167
145.000000 -31.000000 61.993580 158 161 167
146.000000 -31.000000 61.639332 157 160 167
147.000000 -31.000000 61.639332 154 156 162
148.000000 -31.000000 61.993580 152 154 159
149.000000 -31.000000 62.347828 154 155 159
150.000000 -31.000000 62.347828 153 154 159
151.000000 -31.000000 62.347828 152 155 160
152.000000 -31.000000 61.993580 150 155 162
153.000000 -31.000000 61.639332 148 154 160
154.000000 -31.000000 60.576584 152 159 165
155.000000 -31.000000 18.066700 160 168 180
156.000000 -31.000000 17.358202 165 175 192
157.000000 -31.000000 17.003954 169 181 202
158.000000 -31.000000 17.003954 164 177 202
63.000000 -32.000000 164.725800 61 61 60
64.000000 -32.000000 165.788544 59 59 55
65.000000 -32.000000 167.559784 66 64 60
66.000000 -32.000000 169.685287 64 60 57
67.000000 -32.000000 169.685287 63 59 56
68.000000 -32.000000 169.685287 76 71 68
69.000000 -32.000000 169.331039 76 70 64
70.000000 -32.000000 168.622543 64 58 50
71.000000 -32.000000 166.142792 56 49 45
72.000000 -32.000000 165.080048 88 82 79
73.000000 -32.000000 165.434296 142 132 128
74.000000 -32.000000 166.142792 156 143 137
75.000000 -32.000000 168.622543 153 139 135
76.000000 -32.000000 168.976791 154 143 141
77.000000 -32.000000 169.685287 152 145 145
78.000000 -32.000000 169.685287 148 141 142
79.000000 -32.000000 170.039536 150 139 136
80.000000 -32.000000 170.039536 155 141 135
81.000000 -32.000000 170.039536 160 143 138
82.000000 -32.000000 171.102280 176 159 154
83.000000 -32.000000 172.519272 206 189 183
84.000000 -32.000000 174.290527 230 213 209
85.000000 -32.000000 174.999023 240 223 222
86.000000 -32.000000 175.353271 247 231 229
87.000000 -32.000000 175.353271 240 222 215
88.000000 -32.000000 174.999023 228 209 199
89.000000 -32.000000 174.644775 223 204 191
90.000000 -32.000000 174.644775 220 199 185
91.000000 -32.000000 175.353271 213 191 179
92.000000 -32.000000 175.353271 206 187 177
93.000000 -32.000000 168.976791 209 191 184
94.000000 -32.000000 162.246063 216 198 195
95.000000 -32.000000 161.537552 225 208 205
96.000000 -32.000000 160.829056 232 215 212
97.000000 -32.000000 160.829056 233 217 214
98.000000 -32.000000 164.017303 228 214 212
99.000000 -32.000000 165.080048 215 201 200
100.000000 -32.000000 166.851288 179 166 166
101.000000 -32.000000 168.268295 131 121 122
102.000000 -32.000000 169.685287 104 97 98
103.000000 -32.000000 169.685287 90 85 87
104.000000 -32.000000 168.976791 79 76 82
105.000000 -32.000000 170.039536 71 68 75
106.000000 -32.000000 170.748032 66 64 69
107.000000 -32.000000 173.582031 65 63 66
108.000000 -32.000000 174.644775 62 60 63
109.000000 -32.000000 174.999023 61 59 62
110.000000 -32.000000 174.999023 67 65 68
111.000000 -32.000000 174.999023 67 66 66
112.000000 -32.000000 161.183304 61 59 59
113.000000 -32.000000 159.766312 63 60 58
114.000000 -32.000000 109.108704 68 65 61
115.000000 -32.000000 109.108704 63 59 55
116.000000 -32.000000 91.042000 64 60 56
117.000000 -32.000000 91.042000 77 74 68
118.000000 -32.000000 58.805340 107 99 88
119.000000 -32.000000 58.805340 129 117 102
120.000000 -32.000000 60.222336 136 123 106
121.000000 -32.000000 60.576584 138 125 107
122.000000 -32.000000 60.576584 137 125 107
123.000000 -32.000000 60.576584 138 126 111
124.000000 -32.000000 60.576584 141 131 117
125.000000 -32.000000 60.576584 141 133 120
126.000000 -32.000000 58.805340 141 133 121
127.000000 -32.000000 58.451092 141 134 124
128.000000 -32.000000 58.096840 140 133 125
129.000000 -32.000000 58.451092 141 134 129
130.000000 -32.000000 59.159588 141 135 131
131.000000 -32.000000 58.805340 141 135 132
132.000000 -32.000000 55.262848 141 136 132
133.000000 -32.000000 55.971348 142 137 134
134.000000 -32.000000 57.388344 145 142 138
135.000000 -32.000000 58.805340 149 148 144
136.000000 -32.000000 60.222336 151 150 146
137.000000 -32.000000 60.576584 150 149 145
138.000000 -32.000000 60.576584 150 148 148
139.000000 -32.000000 60.576584 150 148 151
140.000000 -32.000000 60.576584 153 151 154
141.000000 -32.000000 60.576584 156 154 157
142.000000 -32.000000 61.993580 158 157 161
143.000000 -32.000000 62.347828 160 161 165
144.000000 -32.000000 62.347828 158 160 165
145.000000 -32.000000 62.347828 156 159 165
146.000000 -32.000000 62.702080 155 157 162
147.000000 -32.000000 62.702080 152 153 157
148.000000 -32.000000 62.702080 152 153 157
149.000000 -32.000000 62.702080 153 155 159
150.000000 -32.000000 62.702080 152 153 159
151.000000 -32.000000 62.347828 152 154 159
152.000000 -32.000000 61.993580 150 153 158
153.000000 -32.000000 61.639332 148 151 155
154.000000 -32.000000 60.576584 152 158 164
155.000000 -32.000000 17.358202 157 165 178
156.000000 -32.000000 17.358202 161 170 187
157.000000 -32.000000 17.358202 166 177 198
158.000000 -32.000000 17.003954 161 175 198
63.000000 -33.000000 164.371552 63 62 62
64.000000 -33.000000 164.725800 61 60 56
65.000000 -33.000000 165.788544 69 68 64
66.000000 -33.000000 168.976791 67 66 62
67.000000 -33.000000 168.976791 69 65 63
68.000000 -33.000000 169.331039 80 75 73
69.000000 -33.000000 168.976791 77 72 67
70.000000 -33.000000 166.851288 59 52 48
71.000000 -33.000000 165.080048 59 51 50
72.000000 -33.000000 164.725800 107 98 97
73.000000 -33.000000 164.725800 147 137 132
74.000000 -33.000000 166.142792 143 131 123
75.000000 -33.000000 168.976791 130 121 115
76.000000 -33.000000 169.685287 141 138 144
77.000000 -33.000000 170.039536 133 137 147
78.000000 -33.000000 170.393784 123 127 133
79.000000 -33.000000 170.748032 127 127 126
80.000000 -33.000000 171.102280 145 138 138
81.000000 -33.000000 171.456528 159 146 145
82.000000 -33.000000 172.519272 170 154 153
83.000000 -33.000000 173.936279 195 178 175
84.000000 -33.000000 174.644775 225 208 206
85.000000 -33.000000 175.353271 239 223 223
86.000000 -33.000000 175.353271 246 231 229
87.000000 -33.000000 175.353271 242 224 217
88.000000 -33.000000 174.999023 235 214 204
89.000000 -33.000000 174.644775 227 207 196
90.000000 -33.000000 174.644775 220 197 187
91.000000 -33.000000 175.353271 205 180 173
92.000000 -33.000000 175.353271 189 170 167
93.000000 -33.000000 171.102280 182 167 167
94.000000 -33.000000 161.891800 180 167 166
95.000000 -33.000000 161.183304 189 176 172
96.000000 -33.000000 161.537552 200 185 180
97.000000 -33.000000 163.308807 206 188 181
98.000000 -33.000000 165.080048 214 195 185
99.000000 -33.000000 166.497040 218 197 190
100.000000 -33.000000 166.851288 198 180 175
101.000000 -33.000000 167.559784 152 141 137
102.000000 -33.000000 168.622543 117 108 106
103.000000 -33.000000 168.622543 102 93 93
104.000000 -33.000000 168.976791 89 82 86
105.000000 -33.000000 169.685287 77 73 80
106.000000 -33.000000 171.810776 73 71 75
107.000000 -33.000000 174.644775 72 70 73
108.000000 -33.000000 174.644775 67 65 68
109.000000 -33.000000 174.999023 65 63 66
110.000000 -33.000000 174.999023 67 65 67
111.000000 -33.000000 174.999023 66 64 65
112.000000 -33.000000 173.582031 63 61 60
113.000000 -33.000000 170.748032 58 55 53
114.000000 -33.000000 160.829056 55 51 47
115.000000 -33.000000 109.462952 54 50 45
116.000000 -33.000000 107.691704 58 54 50
117.000000 -33.000000 91.750496 69 65 61
118.000000 -33.000000 62.347828 97 89 80
119.000000 -33.000000 58.805340 125 115 100
120.000000 -33.000000 59.868088 135 123 107
121.000000 -33.000000 60.576584 139 126 108
122.000000 -33.000000 60.930832 139 127 109
123.000000 -33.000000 60.930832 138 128 113
124.000000 -33.000000 60.576584 140 131 117
125.000000 -33.000000 60.576584 140 133 122
126.000000 -33.000000 58.096840 139 132 122
127.000000 -33.000000 58.096840 139 132 122
128.000000 -33.000000 58.096840 139 132 124
129.000000 -33.000000 58.451092 139 134 129
130.000000 -33.000000 58.096840 140 134 130
131.000000 -33.000000 22.317688 140 135 131
132.000000 -33.000000 22.317688 141 136 132
133.000000 -33.000000 22.671938 141 136 132
134.000000 -33.000000 56.679844 144 140 137
135.000000 -33.000000 58.096840 149 147 145
136.000000 -33.000000 59.868088 151 150 147
137.000000 -33.000000 60.576584 150 148 145
138.000000 -33.000000 60.930832 149 147 146
139.000000 -33.000000 60.930832 150 148 149
140.000000 -33.000000 61.285084 153 151 153
141.000000 -33.000000 61.993580 155 153 156
142.000000 -33.000000 62.702080 156 156 160
143.000000 -33.000000 63.410576 159 160 164
144.000000 -33.000000 63.410576 159 160 164
145.000000 -33.000000 63.410576 157 158 162
146.000000 -33.000000 64.119072 154 154 159
147.000000 -33.000000 64.473320 151 151 154
148.000000 -33.000000 63.764824 150 150 152
149.000000 -33.000000 63.764824 149 149 152
150.000000 -33.000000 63.056328 148 150 153
151.000000 -33.000000 62.702080 149 151 155
152.000000 -33.000000 61.993580 148 149 153
153.000000 -33.000000 61.285084 146 148 150
154.000000 -33.000000 17.712452 151 155 160
155.000000 -33.000000 17.358202 157 164 175
156.000000 -33.000000 17.358202 160 169 186
157.000000 -33.000000 17.358202 165 176 196
158.000000 -33.000000 17.358202 161 175 195
63.000000 -34.000000 164.371552 63 62 63
64.000000 -34.000000 164.371552 61 60 59
65.000000 -34.000000 164.371552 71 69 67
66.000000 -34.000000 167.205536 73 70 66
67.000000 -34.000000 168.268295 75 71 67
68.000000 -34.000000 168.976791 88 83 80
69.000000 -34.000000 168.622543 90 87 85
70.000000 -34.000000 166.497040 64 60 59
71.000000 -34.000000 164.725800 68 61 62
72.000000 -34.000000 164.371552 126 117 114
73.000000 -34.000000 164.371552 161 149 142
74.000000 -34.000000 166.142792 152 139 130
75.000000 -34.000000 168.976791 148 135 131
76.000000 -34.000000 170.039536 163 158 168
77.000000 -34.000000 170.039536 149 151 166
78.000000 -34.000000 170.748032 128 132 139
79.000000 -34.000000 170.748032 134 135 138
80.000000 -34.000000 171.456528 153 147 152
81.000000 -34.000000 171.810776 166 154 157
82.000000 -34.000000 173.582031 174 160 160
83.000000 -34.000000 174.644775 193 176 175
84.000000 -34.000000 174.999023 223 201 201
85.000000 -34.000000 175.353271 239 217 215
86.000000 -34.000000 175.353271 243 223 218
87.000000 -34.000000 174.999023 238 218 210
88.000000 -34.000000 173.936279 230 210 201
89.000000 -34.000000 172.519272 222 203 195
90.000000 -34.000000 172.519272 213 191 185
91.000000 -34.000000 174.644775 201 177 175
92.000000 -34.000000 174.644775 195 185 191
93.000000 -34.000000 171.102280 174 175 184
94.000000 -34.000000 161.183304 146 146 148
95.000000 -34.000000 160.829056 145 144 143
96.000000 -34.000000 162.954559 154 148 146
97.000000 -34.000000 165.080048 170 157 150
98.000000 -34.000000 166.142792 192 171 158
99.000000 -34.000000 167.559784 211 187 174
100.000000 -34.000000 167.559784 206 187 175
101.000000 -34.000000 166.851288 171 159 150
102.000000 -34.000000 167.559784 136 127 120
103.000000 -34.000000 168.268295 118 108 105
104.000000 -34.000000 168.622543 100 91 91
105.000000 -34.000000 169.685287 85 78 80
106.000000 -34.000000 171.810776 81 78 82
107.000000 -34.000000 174.644775 83 80 85
108.000000 -34.000000 174.644775 74 72 75
109.000000 -34.000000 174.644775 70 68 71
110.000000 -34.000000 174.644775 73 71 74
111.000000 -34.000000 174.290527 71 69 71
112.000000 -34.000000 173.582031 64 62 64
113.000000 -34.000000 171.810776 56 54 53
114.000000 -34.000000 168.976791 52 50 45
115.000000 -34.000000 109.462952 51 48 43
116.000000 -34.000000 91.042000 57 53 49
117.000000 -34.000000 91.042000 67 63 57
118.000000 -34.000000 89.625008 89 83 73
119.000000 -34.000000 59.513836 122 113 99
120.000000 -34.000000 59.513836 135 125 109
121.000000 -34.000000 60.576584 140 128 111
122.000000 -34.000000 60.930832 140 128 112
123.000000 -34.000000 61.285084 138 128 115
124.000000 -34.000000 61.285084 138 130 118
125.000000 -34.000000 60.222336 139 132 122
126.000000 -34.000000 57.742592 138 131 121
127.000000 -34.000000 57.742592 137 130 120
128.000000 -34.000000 58.451092 137 131 122
129.000000 -34.000000 58.451092 138 132 125
130.000000 -34.000000 19.129448 138 133 127
131.000000 -34.000000 19.483696 138 133 129
132.000000 -34.000000 20.546444 139 134 131
133.000000 -34.000000 20.900692 140 135 131
134.000000 -34.000000 22.671938 143 139 136
135.000000 -34.000000 58.096840 148 144 144
136.000000 -34.000000 60.222336 151 149 146
137.000000 -34.000000 60.930832 148 147 143
138.000000 -34.000000 61.285084 146 145 141
139.000000 -34.000000 61.285084 148 146 143
140.000000 -34.000000 61.639332 151 149 148
141.000000 -34.000000 62.702080 154 153 153
142.000000 -34.000000 63.410576 156 155 157
143.000000 -34.000000 63.764824 157 157 160
144.000000 -34.000000 63.764824 159 159 163
145.000000 -34.000000 64.119072 157 157 161
146.000000 -34.000000 64.827576 154 153 156
147.000000 -34.000000 66.953064 151 150 153
148.000000 -34.000000 64.827576 147 146 148
149.000000 -34.000000 63.764824 145 144 147
150.000000 -34.000000 63.410576 145 146 148
151.000000 -34.000000 62.702080 146 147 149
152.000000 -34.000000 61.285084 144 144 147
153.000000 -34.000000 60.222336 144 144 146
154.000000 -34.000000 17.358202 150 152 155
155.000000 -34.000000 17.358202 156 160 169
156.000000 -34.000000 17.712452 160 168 183
157.000000 -34.000000 17.712452 165 176 196
158.000000 -34.000000 17.712452 162 175 195
63.000000 -35.000000 162.954559 61 60 63
64.000000 -35.000000 163.308807 56 54 56
65.000000 -35.000000 163.308807 66 64 63
66.000000 -35.000000 164.371552 73 69 66
67.000000 -35.000000 165.434296 79 73 69
68.000000 -35.000000 168.268295 99 96 93
69.000000 -35.000000 166.497040 105 105 106
70.000000 -35.000000 164.725800 74 72 74
71.000000 -35.000000 164.371552 79 75 75
72.000000 -35.000000 163.663055 143 134 130
73.000000 -35.000000 163.663055 177 163 154
74.000000 -35.000000 165.080048 173 156 148
75.000000 -35.000000 167.914047 167 150 147
76.000000 -35.000000 168.976791 171 157 161
77.000000 -35.000000 170.039536 166 155 164
78.000000 -35.000000 170.393784 154 145 152
79.000000 -35.000000 170.393784 157 148 152
80.000000 -35.000000 171.456528 168 157 163
81.000000 -35.000000 171.810776 174 161 166
82.000000 -35.000000 173.582031 177 162 162
83.000000 -35.000000 174.999023 198 178 177
84.000000 -35.000000 175.353271 227 199 197
85.000000 -35.000000 175.353271 241 211 207
86.000000 -35.000000 173.936279 242 216 208
87.000000 -35.000000 173.936279 235 213 202
88.000000 -35.000000 171.102280 227 206 194
89.000000 -35.000000 170.039536 222 203 193
90.000000 -35.000000 170.039536 214 192 186
91.000000 -35.000000 171.810776 204 182 181
92.000000 -35.000000 171.456528 209 202 210
93.000000 -35.000000 161.183304 192 198 210
94.000000 -35.000000 160.829056 154 160 167
95.000000 -35.000000 161.183304 148 153 159
96.000000 -35.000000 164.017303 156 155 159
