ply
		format ascii 1.0
		element vertex 3318
		property float x
		property float y
		property float z
		property uchar red
		property uchar green
		property uchar blue
		end_header
119.000000 -18.000000 0.000000 230 230 230
120.000000 -18.000000 0.000000 233 233 233
121.000000 -18.000000 0.000000 230 230 230
122.000000 -18.000000 0.000000 234 234 234
124.000000 -18.000000 0.000000 232 232 232
125.000000 -18.000000 0.000000 219 219 219
126.000000 -18.000000 0.000000 208 208 208
128.000000 -18.000000 0.000000 103 103 103
136.000000 -18.000000 0.000000 58 58 58
141.000000 -18.000000 3.188241 54 54 54
143.000000 -18.000000 0.000000 50 50 50
144.000000 -18.000000 0.000000 47 47 47
145.000000 -18.000000 0.000000 47 47 47
146.000000 -18.000000 0.000000 47 47 47
147.000000 -18.000000 3.542490 46 46 46
148.000000 -18.000000 3.188241 45 45 45
150.000000 -18.000000 0.000000 42 42 42
151.000000 -18.000000 0.000000 42 42 42
152.000000 -18.000000 0.000000 42 42 42
153.000000 -18.000000 0.000000 44 44 44
21.000000 -19.000000 85.019768 157 157 157
22.000000 -19.000000 85.019768 156 156 156
36.000000 -19.000000 66.598816 194 194 194
37.000000 -19.000000 66.598816 203 203 203
38.000000 -19.000000 65.890320 215 215 215
40.000000 -19.000000 65.536072 203 203 203
41.000000 -19.000000 65.536072 180 180 180
42.000000 -19.000000 65.181824 208 208 208
43.000000 -19.000000 65.181824 225 225 225
44.000000 -19.000000 65.181824 228 228 228
45.000000 -19.000000 64.827576 220 220 220
46.000000 -19.000000 65.536072 211 211 211
48.000000 -19.000000 64.119072 206 206 206
75.000000 -19.000000 0.000000 56 56 56
76.000000 -19.000000 0.000000 58 58 58
80.000000 -19.000000 0.000000 67 67 67
97.000000 -19.000000 21.609190 252 252 252
98.000000 -19.000000 23.734686 249 249 249
99.000000 -19.000000 25.151682 241 241 241
100.000000 -19.000000 24.797432 231 231 231
101.000000 -19.000000 24.797432 227 227 227
118.000000 -19.000000 0.000000 238 238 238
119.000000 -19.000000 0.000000 229 229 229
120.000000 -19.000000 0.000000 235 235 235
121.000000 -19.000000 0.000000 229 229 229
122.000000 -19.000000 0.000000 232 232 232
124.000000 -19.000000 0.000000 236 236 236
125.000000 -19.000000 0.000000 228 228 228
126.000000 -19.000000 0.000000 211 211 211
135.000000 -19.000000 0.000000 61 61 61
136.000000 -19.000000 0.000000 58 58 58
143.000000 -19.000000 0.000000 51 51 51
144.000000 -19.000000 0.000000 49 49 49
145.000000 -19.000000 0.000000 47 47 47
146.000000 -19.000000 0.000000 46 46 46
147.000000 -19.000000 3.542490 46 46 46
150.000000 -19.000000 0.000000 43 43 43
151.000000 -19.000000 0.000000 42 42 42
152.000000 -19.000000 0.000000 43 43 43
153.000000 -19.000000 0.000000 46 46 46
21.000000 -20.000000 85.019768 157 157 157
33.000000 -20.000000 85.019768 196 196 196
37.000000 -20.000000 65.890320 208 208 208
43.000000 -20.000000 64.473320 221 221 221
75.000000 -20.000000 0.000000 58 58 58
98.000000 -20.000000 22.317688 233 233 233
99.000000 -20.000000 24.443184 219 219 219
100.000000 -20.000000 23.734686 206 206 206
101.000000 -20.000000 24.088934 200 200 200
118.000000 -20.000000 0.000000 236 236 236
119.000000 -20.000000 0.000000 229 229 229
120.000000 -20.000000 0.000000 241 241 241
121.000000 -20.000000 0.000000 236 236 236
122.000000 -20.000000 0.000000 230 230 230
135.000000 -20.000000 0.000000 61 61 61
136.000000 -20.000000 0.000000 58 58 58
138.000000 -20.000000 0.000000 53 53 53
139.000000 -20.000000 0.000000 53 53 53
140.000000 -20.000000 0.000000 50 50 50
142.000000 -20.000000 0.000000 49 49 49
143.000000 -20.000000 0.000000 50 50 50
144.000000 -20.000000 0.000000 50 50 50
145.000000 -20.000000 0.000000 48 48 48
146.000000 -20.000000 0.000000 46 46 46
147.000000 -20.000000 3.188241 46 46 46
149.000000 -20.000000 0.000000 43 43 43
150.000000 -20.000000 0.000000 44 44 44
151.000000 -20.000000 0.000000 44 44 44
152.000000 -20.000000 0.000000 46 46 46
153.000000 -20.000000 0.000000 46 46 46
21.000000 -21.000000 81.477280 150 150 150
31.000000 -21.000000 85.019768 199 199 199
32.000000 -21.000000 85.019768 198 198 198
33.000000 -21.000000 85.019768 200 200 200
85.000000 -21.000000 11.690218 66 66 66
98.000000 -21.000000 21.963440 162 162 162
99.000000 -21.000000 24.443184 151 151 151
100.000000 -21.000000 23.380436 142 142 142
101.000000 -21.000000 23.026188 135 135 135
110.000000 -21.000000 70.849808 219 219 219
135.000000 -21.000000 0.000000 61 61 61
136.000000 -21.000000 0.000000 57 57 57
137.000000 -21.000000 0.000000 55 55 55
138.000000 -21.000000 0.000000 52 52 52
139.000000 -21.000000 0.000000 51 51 51
140.000000 -21.000000 0.000000 50 50 50
141.000000 -21.000000 0.000000 48 48 48
142.000000 -21.000000 0.000000 46 46 46
143.000000 -21.000000 0.000000 47 47 47
144.000000 -21.000000 0.000000 47 47 47
145.000000 -21.000000 0.000000 47 47 47
146.000000 -21.000000 0.000000 46 46 46
147.000000 -21.000000 3.188241 45 45 45
148.000000 -21.000000 0.000000 44 44 44
149.000000 -21.000000 0.000000 43 43 43
150.000000 -21.000000 0.000000 43 43 43
151.000000 -21.000000 0.000000 43 43 43
152.000000 -21.000000 0.000000 45 45 45
153.000000 -21.000000 0.000000 45 45 45
31.000000 -22.000000 85.019768 198 198 198
32.000000 -22.000000 85.019768 199 199 199
33.000000 -22.000000 85.019768 200 200 200
61.000000 -22.000000 0.000000 95 95 95
76.000000 -22.000000 3.542490 56 56 56
77.000000 -22.000000 3.896739 58 58 58
85.000000 -22.000000 10.627471 66 66 66
99.000000 -22.000000 24.088934 98 98 98
100.000000 -22.000000 22.671938 99 99 99
101.000000 -22.000000 21.609190 101 101 101
104.000000 -22.000000 19.483696 118 118 118
135.000000 -22.000000 0.000000 61 61 61
136.000000 -22.000000 0.000000 57 57 57
137.000000 -22.000000 0.000000 55 55 55
138.000000 -22.000000 0.000000 51 51 51
139.000000 -22.000000 0.000000 50 50 50
140.000000 -22.000000 0.000000 50 50 50
141.000000 -22.000000 0.000000 48 48 48
142.000000 -22.000000 0.000000 47 47 47
143.000000 -22.000000 0.000000 48 48 48
144.000000 -22.000000 0.000000 47 47 47
145.000000 -22.000000 0.000000 46 46 46
146.000000 -22.000000 0.000000 46 46 46
147.000000 -22.000000 0.000000 45 45 45
148.000000 -22.000000 0.000000 44 44 44
149.000000 -22.000000 0.000000 43 43 43
150.000000 -22.000000 0.000000 43 43 43
151.000000 -22.000000 0.000000 43 43 43
152.000000 -22.000000 0.000000 45 45 45
153.000000 -22.000000 0.000000 45 45 45
59.000000 -23.000000 0.000000 79 79 79
60.000000 -23.000000 0.000000 79 79 79
61.000000 -23.000000 0.000000 74 74 74
63.000000 -23.000000 0.000000 69 69 69
64.000000 -23.000000 0.000000 66 66 66
73.000000 -23.000000 3.542490 55 55 55
74.000000 -23.000000 3.542490 51 51 51
75.000000 -23.000000 3.188241 53 53 53
76.000000 -23.000000 4.959486 55 55 55
77.000000 -23.000000 7.084980 56 56 56
79.000000 -23.000000 4.250988 62 62 62
99.000000 -23.000000 24.443184 133 133 133
102.000000 -23.000000 20.192194 166 166 166
104.000000 -23.000000 19.483696 197 197 197
107.000000 -23.000000 17.003954 171 171 171
108.000000 -23.000000 19.129448 164 164 164
114.000000 -23.000000 66.598816 244 244 244
115.000000 -23.000000 67.307312 239 239 239
116.000000 -23.000000 66.953064 234 234 234
119.000000 -23.000000 40.384388 231 231 231
120.000000 -23.000000 42.864132 246 246 246
135.000000 -23.000000 0.000000 58 58 58
136.000000 -23.000000 0.000000 58 58 58
137.000000 -23.000000 0.000000 57 57 57
138.000000 -23.000000 0.000000 52 52 52
139.000000 -23.000000 0.000000 50 50 50
140.000000 -23.000000 0.000000 50 50 50
141.000000 -23.000000 0.000000 51 51 51
142.000000 -23.000000 0.000000 49 49 49
143.000000 -23.000000 0.000000 49 49 49
144.000000 -23.000000 0.000000 47 47 47
145.000000 -23.000000 0.000000 46 46 46
146.000000 -23.000000 0.000000 47 47 47
147.000000 -23.000000 0.000000 46 46 46
148.000000 -23.000000 0.000000 44 44 44
149.000000 -23.000000 0.000000 44 44 44
150.000000 -23.000000 0.000000 44 44 44
151.000000 -23.000000 0.000000 43 43 43
152.000000 -23.000000 0.000000 45 45 45
153.000000 -23.000000 0.000000 45 45 45
60.000000 -24.000000 0.000000 72 72 72
61.000000 -24.000000 0.000000 60 60 60
73.000000 -24.000000 3.542490 67 67 67
74.000000 -24.000000 3.542490 52 52 52
75.000000 -24.000000 3.896739 53 53 53
76.000000 -24.000000 6.730731 54 54 54
77.000000 -24.000000 8.501977 56 56 56
79.000000 -24.000000 4.605237 61 61 61
80.000000 -24.000000 3.188241 61 61 61
81.000000 -24.000000 5.313735 62 62 62
83.000000 -24.000000 7.793478 62 62 62
84.000000 -24.000000 8.147728 63 63 63
99.000000 -24.000000 23.734686 189 189 189
102.000000 -24.000000 19.483696 213 213 213
103.000000 -24.000000 19.483696 226 226 226
104.000000 -24.000000 19.129448 236 236 236
105.000000 -24.000000 19.129448 247 247 247
106.000000 -24.000000 17.358202 242 242 242
107.000000 -24.000000 17.358202 189 189 189
108.000000 -24.000000 19.129448 138 138 138
109.000000 -24.000000 18.775198 182 182 182
113.000000 -24.000000 67.307312 230 230 230
114.000000 -24.000000 66.953064 245 245 245
115.000000 -24.000000 68.015816 237 237 237
116.000000 -24.000000 67.661568 232 232 232
119.000000 -24.000000 38.967392 232 232 232
120.000000 -24.000000 42.509884 247 247 247
121.000000 -24.000000 46.760872 250 250 250
135.000000 -24.000000 0.000000 55 55 55
136.000000 -24.000000 0.000000 56 56 56
137.000000 -24.000000 0.000000 56 56 56
138.000000 -24.000000 0.000000 52 52 52
139.000000 -24.000000 0.000000 50 50 50
140.000000 -24.000000 0.000000 49 49 49
141.000000 -24.000000 0.000000 48 48 48
142.000000 -24.000000 0.000000 50 50 50
143.000000 -24.000000 0.000000 50 50 50
144.000000 -24.000000 0.000000 47 47 47
145.000000 -24.000000 0.000000 47 47 47
146.000000 -24.000000 0.000000 47 47 47
147.000000 -24.000000 0.000000 46 46 46
148.000000 -24.000000 0.000000 44 44 44
150.000000 -24.000000 0.000000 44 44 44
151.000000 -24.000000 0.000000 44 44 44
152.000000 -24.000000 0.000000 44 44 44
153.000000 -24.000000 0.000000 45 45 45
24.000000 -25.000000 0.000000 154 154 154
73.000000 -25.000000 3.542490 98 98 98
74.000000 -25.000000 3.896739 56 56 56
75.000000 -25.000000 4.605237 53 53 53
76.000000 -25.000000 7.439229 53 53 53
79.000000 -25.000000 3.542490 58 58 58
81.000000 -25.000000 3.896739 59 59 59
82.000000 -25.000000 6.730731 59 59 59
83.000000 -25.000000 6.376482 59 59 59
84.000000 -25.000000 7.439229 61 61 61
85.000000 -25.000000 8.501977 62 62 62
87.000000 -25.000000 4.959486 61 61 61
88.000000 -25.000000 4.959486 57 57 57
102.000000 -25.000000 18.775198 218 218 218
103.000000 -25.000000 19.129448 230 230 230
104.000000 -25.000000 18.775198 238 238 238
105.000000 -25.000000 19.129448 247 247 247
106.000000 -25.000000 18.066700 248 248 248
107.000000 -25.000000 18.420950 217 217 217
108.000000 -25.000000 19.837946 139 139 139
109.000000 -25.000000 19.129448 154 154 154
110.000000 -25.000000 19.129448 191 191 191
114.000000 -25.000000 68.015816 238 238 238
115.000000 -25.000000 69.432808 235 235 235
119.000000 -25.000000 37.904648 231 231 231
120.000000 -25.000000 42.155636 247 247 247
121.000000 -25.000000 45.343876 248 248 248
135.000000 -25.000000 0.000000 55 55 55
136.000000 -25.000000 0.000000 56 56 56
138.000000 -25.000000 0.000000 51 51 51
139.000000 -25.000000 0.000000 49 49 49
140.000000 -25.000000 0.000000 48 48 48
141.000000 -25.000000 0.000000 49 49 49
142.000000 -25.000000 0.000000 51 51 51
143.000000 -25.000000 0.000000 49 49 49
144.000000 -25.000000 0.000000 46 46 46
145.000000 -25.000000 0.000000 45 45 45
146.000000 -25.000000 0.000000 46 46 46
147.000000 -25.000000 0.000000 46 46 46
148.000000 -25.000000 0.000000 44 44 44
151.000000 -25.000000 0.000000 44 44 44
152.000000 -25.000000 0.000000 43 43 43
153.000000 -25.000000 0.000000 43 43 43
71.000000 -26.000000 3.188241 111 111 111
72.000000 -26.000000 3.188241 188 188 188
73.000000 -26.000000 3.896739 154 154 154
74.000000 -26.000000 4.250988 66 66 66
75.000000 -26.000000 5.313735 49 49 49
76.000000 -26.000000 7.793478 49 49 49
77.000000 -26.000000 8.856226 50 50 50
79.000000 -26.000000 3.188241 51 51 51
81.000000 -26.000000 3.542490 52 52 52
82.000000 -26.000000 5.313735 53 53 53
83.000000 -26.000000 4.250988 55 55 55
84.000000 -26.000000 5.667984 57 57 57
85.000000 -26.000000 6.730731 58 58 58
86.000000 -26.000000 3.896739 59 59 59
103.000000 -26.000000 18.066700 228 228 228
104.000000 -26.000000 18.420950 234 234 234
105.000000 -26.000000 18.775198 240 240 240
106.000000 -26.000000 18.066700 240 240 240
107.000000 -26.000000 18.420950 228 228 228
108.000000 -26.000000 19.837946 149 149 149
109.000000 -26.000000 19.129448 129 129 129
110.000000 -26.000000 18.775198 160 160 160
114.000000 -26.000000 69.432808 223 223 223
119.000000 -26.000000 36.487652 223 223 223
120.000000 -26.000000 40.738640 244 244 244
121.000000 -26.000000 44.989628 245 245 245
135.000000 -26.000000 0.000000 56 56 56
136.000000 -26.000000 0.000000 57 57 57
138.000000 -26.000000 0.000000 50 50 50
139.000000 -26.000000 0.000000 49 49 49
140.000000 -26.000000 0.000000 47 47 47
141.000000 -26.000000 0.000000 48 48 48
142.000000 -26.000000 0.000000 48 48 48
143.000000 -26.000000 0.000000 46 46 46
144.000000 -26.000000 0.000000 43 43 43
145.000000 -26.000000 0.000000 44 44 44
146.000000 -26.000000 0.000000 45 45 45
147.000000 -26.000000 0.000000 45 45 45
148.000000 -26.000000 0.000000 45 45 45
151.000000 -26.000000 0.000000 44 44 44
152.000000 -26.000000 0.000000 43 43 43
153.000000 -26.000000 0.000000 42 42 42
71.000000 -27.000000 4.959486 138 138 138
72.000000 -27.000000 4.250988 226 226 226
73.000000 -27.000000 4.959486 201 201 201
74.000000 -27.000000 4.605237 84 84 84
75.000000 -27.000000 6.376482 45 45 45
76.000000 -27.000000 8.501977 42 42 42
77.000000 -27.000000 9.210475 42 42 42
78.000000 -27.000000 9.564724 42 42 42
79.000000 -27.000000 3.542490 43 43 43
81.000000 -27.000000 3.542490 44 44 44
82.000000 -27.000000 4.959486 45 45 45
83.000000 -27.000000 3.542490 48 48 48
84.000000 -27.000000 4.605237 52 52 52
85.000000 -27.000000 4.605237 54 54 54
91.000000 -27.000000 54.908600 121 121 121
92.000000 -27.000000 55.262848 205 205 205
99.000000 -27.000000 57.742592 188 188 188
101.000000 -27.000000 57.388344 203 203 203
104.000000 -27.000000 17.712452 227 227 227
105.000000 -27.000000 18.420950 232 232 232
106.000000 -27.000000 17.358202 229 229 229
107.000000 -27.000000 18.420950 226 226 226
108.000000 -27.000000 19.837946 159 159 159
109.000000 -27.000000 19.129448 114 114 114
110.000000 -27.000000 19.129448 137 137 137
114.000000 -27.000000 69.787056 211 211 211
118.000000 -27.000000 31.882412 203 203 203
119.000000 -27.000000 36.133400 213 213 213
120.000000 -27.000000 38.967392 239 239 239
121.000000 -27.000000 44.281128 242 242 242
134.000000 -27.000000 0.000000 56 56 56
135.000000 -27.000000 0.000000 57 57 57
136.000000 -27.000000 0.000000 57 57 57
139.000000 -27.000000 0.000000 50 50 50
140.000000 -27.000000 0.000000 48 48 48
141.000000 -27.000000 0.000000 48 48 48
142.000000 -27.000000 0.000000 48 48 48
143.000000 -27.000000 0.000000 46 46 46
144.000000 -27.000000 0.000000 43 43 43
145.000000 -27.000000 0.000000 44 44 44
146.000000 -27.000000 0.000000 46 46 46
147.000000 -27.000000 0.000000 44 44 44
149.000000 -27.000000 3.188241 43 43 43
151.000000 -27.000000 0.000000 44 44 44
152.000000 -27.000000 0.000000 44 44 44
153.000000 -27.000000 0.000000 43 43 43
32.000000 -28.000000 0.000000 128 128 128
56.000000 -28.000000 55.262848 83 83 83
58.000000 -28.000000 54.200100 86 86 86
59.000000 -28.000000 55.262848 109 109 109
60.000000 -28.000000 55.971348 122 122 122
71.000000 -28.000000 7.439229 139 139 139
72.000000 -28.000000 6.022233 234 234 234
73.000000 -28.000000 6.376482 216 216 216
74.000000 -28.000000 5.313735 96 96 96
75.000000 -28.000000 7.084980 41 41 41
76.000000 -28.000000 8.856226 37 37 37
77.000000 -28.000000 9.564724 36 36 36
78.000000 -28.000000 9.918973 36 36 36
79.000000 -28.000000 6.376482 36 36 36
80.000000 -28.000000 3.188241 36 36 36
81.000000 -28.000000 4.605237 36 36 36
82.000000 -28.000000 6.376482 38 38 38
83.000000 -28.000000 3.188241 40 40 40
84.000000 -28.000000 4.250988 44 44 44
89.000000 -28.000000 54.200100 49 49 49
90.000000 -28.000000 54.554352 61 61 61
91.000000 -28.000000 54.908600 112 112 112
92.000000 -28.000000 55.617096 199 199 199
93.000000 -28.000000 55.617096 234 234 234
94.000000 -28.000000 55.617096 238 238 238
95.000000 -28.000000 55.262848 228 228 228
96.000000 -28.000000 55.971348 195 195 195
97.000000 -28.000000 57.034096 177 177 177
98.000000 -28.000000 58.096840 175 175 175
99.000000 -28.000000 58.096840 180 180 180
100.000000 -28.000000 56.679844 189 189 189
101.000000 -28.000000 57.388344 195 195 195
104.000000 -28.000000 16.649704 225 225 225
105.000000 -28.000000 17.712452 230 230 230
106.000000 -28.000000 16.649704 225 225 225
107.000000 -28.000000 18.066700 220 220 220
108.000000 -28.000000 19.837946 160 160 160
109.000000 -28.000000 19.129448 103 103 103
110.000000 -28.000000 19.129448 118 118 118
111.000000 -28.000000 18.066700 122 122 122
112.000000 -28.000000 17.712452 142 142 142
116.000000 -28.000000 30.111168 207 207 207
117.000000 -28.000000 31.528164 201 201 201
118.000000 -28.000000 32.590912 191 191 191
119.000000 -28.000000 35.779152 204 204 204
120.000000 -28.000000 37.904648 233 233 233
135.000000 -28.000000 0.000000 57 57 57
136.000000 -28.000000 0.000000 55 55 55
139.000000 -28.000000 0.000000 51 51 51
140.000000 -28.000000 0.000000 49 49 49
141.000000 -28.000000 0.000000 50 50 50
142.000000 -28.000000 0.000000 50 50 50
143.000000 -28.000000 0.000000 48 48 48
144.000000 -28.000000 0.000000 46 46 46
145.000000 -28.000000 0.000000 46 46 46
146.000000 -28.000000 0.000000 46 46 46
147.000000 -28.000000 0.000000 44 44 44
148.000000 -28.000000 3.188241 43 43 43
149.000000 -28.000000 5.667984 42 42 42
151.000000 -28.000000 0.000000 45 45 45
152.000000 -28.000000 0.000000 46 46 46
153.000000 -28.000000 0.000000 45 45 45
30.000000 -29.000000 0.000000 120 120 120
31.000000 -29.000000 0.000000 122 122 122
32.000000 -29.000000 0.000000 124 124 124
33.000000 -29.000000 0.000000 133 133 133
58.000000 -29.000000 54.200100 91 91 91
59.000000 -29.000000 55.262848 108 108 108
60.000000 -29.000000 56.325596 125 125 125
69.000000 -29.000000 9.210475 35 35 35
70.000000 -29.000000 9.564724 45 45 45
72.000000 -29.000000 8.501977 216 216 216
73.000000 -29.000000 8.501977 210 210 210
74.000000 -29.000000 7.084980 106 106 106
75.000000 -29.000000 8.147728 42 42 42
76.000000 -29.000000 8.856226 35 35 35
77.000000 -29.000000 9.918973 34 34 34
78.000000 -29.000000 10.627471 34 34 34
81.000000 -29.000000 5.667984 34 34 34
89.000000 -29.000000 54.200100 48 48 48
90.000000 -29.000000 54.554352 58 58 58
91.000000 -29.000000 54.908600 107 107 107
92.000000 -29.000000 55.617096 180 180 180
93.000000 -29.000000 55.617096 208 208 208
94.000000 -29.000000 55.262848 222 222 222
95.000000 -29.000000 54.908600 216 216 216
96.000000 -29.000000 55.617096 182 182 182
97.000000 -29.000000 56.325596 171 171 171
98.000000 -29.000000 57.388344 169 169 169
99.000000 -29.000000 57.742592 171 171 171
100.000000 -29.000000 55.971348 179 179 179
101.000000 -29.000000 57.034096 184 184 184
104.000000 -29.000000 16.295456 224 224 224
105.000000 -29.000000 17.712452 232 232 232
106.000000 -29.000000 16.649704 226 226 226
107.000000 -29.000000 18.420950 211 211 211
108.000000 -29.000000 20.192194 159 159 159
109.000000 -29.000000 19.129448 100 100 100
110.000000 -29.000000 19.129448 105 105 105
111.000000 -29.000000 18.420950 111 111 111
112.000000 -29.000000 19.129448 126 126 126
116.000000 -29.000000 30.465416 196 196 196
117.000000 -29.000000 31.882412 196 196 196
118.000000 -29.000000 32.945160 183 183 183
119.000000 -29.000000 35.779152 200 200 200
120.000000 -29.000000 37.550396 224 224 224
135.000000 -29.000000 0.000000 55 55 55
136.000000 -29.000000 0.000000 54 54 54
139.000000 -29.000000 0.000000 51 51 51
140.000000 -29.000000 0.000000 50 50 50
142.000000 -29.000000 0.000000 51 51 51
143.000000 -29.000000 0.000000 49 49 49
144.000000 -29.000000 0.000000 47 47 47
145.000000 -29.000000 0.000000 46 46 46
146.000000 -29.000000 0.000000 45 45 45
147.000000 -29.000000 0.000000 44 44 44
148.000000 -29.000000 3.542490 43 43 43
149.000000 -29.000000 7.084980 43 43 43
152.000000 -29.000000 0.000000 45 45 45
153.000000 -29.000000 0.000000 44 44 44
30.000000 -30.000000 0.000000 127 127 127
31.000000 -30.000000 0.000000 127 127 127
32.000000 -30.000000 0.000000 130 130 130
33.000000 -30.000000 0.000000 136 136 136
34.000000 -30.000000 0.000000 138 138 138
45.000000 -30.000000 85.019768 114 114 114
58.000000 -30.000000 54.200100 94 94 94
59.000000 -30.000000 55.262848 109 109 109
60.000000 -30.000000 55.971348 128 128 128
74.000000 -30.000000 8.147728 117 117 117
76.000000 -30.000000 9.210475 42 42 42
77.000000 -30.000000 10.273222 41 41 41
78.000000 -30.000000 10.981720 42 42 42
81.000000 -30.000000 4.959486 44 44 44
88.000000 -30.000000 54.908600 48 48 48
89.000000 -30.000000 54.200100 46 46 46
90.000000 -30.000000 54.554352 55 55 55
91.000000 -30.000000 54.908600 91 91 91
92.000000 -30.000000 55.262848 146 146 146
93.000000 -30.000000 55.262848 172 172 172
94.000000 -30.000000 54.908600 194 194 194
95.000000 -30.000000 54.554352 203 203 203
96.000000 -30.000000 54.554352 172 172 172
97.000000 -30.000000 54.908600 164 164 164
98.000000 -30.000000 55.971348 164 164 164
99.000000 -30.000000 56.679844 165 165 165
100.000000 -30.000000 55.617096 171 171 171
101.000000 -30.000000 56.325596 175 175 175
102.000000 -30.000000 59.868088 176 176 176
104.000000 -30.000000 16.295456 200 200 200
105.000000 -30.000000 17.358202 228 228 228
106.000000 -30.000000 16.295456 230 230 230
107.000000 -30.000000 18.066700 212 212 212
108.000000 -30.000000 19.837946 159 159 159
109.000000 -30.000000 18.775198 99 99 99
110.000000 -30.000000 18.420950 92 92 92
111.000000 -30.000000 18.066700 97 97 97
112.000000 -30.000000 18.420950 104 104 104
116.000000 -30.000000 31.173914 187 187 187
117.000000 -30.000000 31.882412 187 187 187
118.000000 -30.000000 33.299408 178 178 178
119.000000 -30.000000 35.779152 197 197 197
120.000000 -30.000000 37.550396 217 217 217
135.000000 -30.000000 0.000000 54 54 54
136.000000 -30.000000 0.000000 53 53 53
139.000000 -30.000000 0.000000 50 50 50
140.000000 -30.000000 0.000000 49 49 49
142.000000 -30.000000 0.000000 48 48 48
143.000000 -30.000000 0.000000 49 49 49
144.000000 -30.000000 0.000000 47 47 47
145.000000 -30.000000 0.000000 46 46 46
146.000000 -30.000000 0.000000 46 46 46
147.000000 -30.000000 0.000000 44 44 44
148.000000 -30.000000 3.542490 44 44 44
149.000000 -30.000000 7.084980 45 45 45
151.000000 -30.000000 0.000000 46 46 46
152.000000 -30.000000 0.000000 44 44 44
153.000000 -30.000000 0.000000 43 43 43
30.000000 -31.000000 0.000000 128 128 128
31.000000 -31.000000 0.000000 130 130 130
32.000000 -31.000000 0.000000 133 133 133
33.000000 -31.000000 0.000000 135 135 135
34.000000 -31.000000 0.000000 140 140 140
45.000000 -31.000000 85.019768 117 117 117
46.000000 -31.000000 85.019768 108 108 108
59.000000 -31.000000 54.200100 108 108 108
60.000000 -31.000000 54.908600 126 126 126
74.000000 -31.000000 6.376482 128 128 128
75.000000 -31.000000 8.501977 60 60 60
76.000000 -31.000000 8.856226 50 50 50
77.000000 -31.000000 10.273222 49 49 49
78.000000 -31.000000 10.981720 50 50 50
88.000000 -31.000000 54.200100 46 46 46
89.000000 -31.000000 53.845852 43 43 43
90.000000 -31.000000 54.200100 51 51 51
91.000000 -31.000000 54.554352 91 91 91
92.000000 -31.000000 54.908600 156 156 156
93.000000 -31.000000 54.554352 190 190 190
94.000000 -31.000000 54.200100 193 193 193
95.000000 -31.000000 53.845852 198 198 198
96.000000 -31.000000 53.845852 175 175 175
97.000000 -31.000000 54.200100 161 161 161
98.000000 -31.000000 54.908600 158 158 158
99.000000 -31.000000 55.617096 158 158 158
100.000000 -31.000000 54.908600 162 162 162
101.000000 -31.000000 55.262848 161 161 161
104.000000 -31.000000 18.066700 164 164 164
105.000000 -31.000000 19.129448 204 204 204
106.000000 -31.000000 18.066700 201 201 201
107.000000 -31.000000 19.129448 179 179 179
108.000000 -31.000000 20.546444 143 143 143
109.000000 -31.000000 19.483696 96 96 96
110.000000 -31.000000 19.129448 78 78 78
111.000000 -31.000000 18.775198 72 72 72
112.000000 -31.000000 19.837946 74 74 74
113.000000 -31.000000 23.380436 81 81 81
117.000000 -31.000000 32.236660 159 159 159
118.000000 -31.000000 33.299408 165 165 165
119.000000 -31.000000 35.779152 184 184 184
120.000000 -31.000000 37.904648 192 192 192
124.000000 -31.000000 51.366108 159 159 159
135.000000 -31.000000 0.000000 55 55 55
136.000000 -31.000000 0.000000 53 53 53
137.000000 -31.000000 0.000000 49 49 49
139.000000 -31.000000 0.000000 47 47 47
142.000000 -31.000000 0.000000 46 46 46
143.000000 -31.000000 0.000000 47 47 47
144.000000 -31.000000 0.000000 46 46 46
145.000000 -31.000000 0.000000 46 46 46
146.000000 -31.000000 0.000000 46 46 46
147.000000 -31.000000 0.000000 44 44 44
148.000000 -31.000000 3.188241 44 44 44
149.000000 -31.000000 6.376482 46 46 46
151.000000 -31.000000 0.000000 46 46 46
152.000000 -31.000000 0.000000 43 43 43
153.000000 -31.000000 0.000000 42 42 42
30.000000 -32.000000 0.000000 113 113 113
31.000000 -32.000000 0.000000 119 119 119
32.000000 -32.000000 0.000000 127 127 127
33.000000 -32.000000 0.000000 136 136 136
34.000000 -32.000000 0.000000 147 147 147
45.000000 -32.000000 85.019768 145 145 145
58.000000 -32.000000 52.783104 93 93 93
60.000000 -32.000000 54.200100 114 114 114
74.000000 -32.000000 3.896739 138 138 138
75.000000 -32.000000 7.084980 62 62 62
76.000000 -32.000000 8.856226 50 50 50
77.000000 -32.000000 9.918973 49 49 49
78.000000 -32.000000 10.627471 50 50 50
79.000000 -32.000000 8.501977 52 52 52
89.000000 -32.000000 52.783104 40 40 40
90.000000 -32.000000 53.137356 49 49 49
91.000000 -32.000000 53.845852 99 99 99
92.000000 -32.000000 54.200100 173 173 173
93.000000 -32.000000 54.200100 212 212 212
94.000000 -32.000000 53.845852 206 206 206
95.000000 -32.000000 53.137356 207 207 207
96.000000 -32.000000 53.137356 195 195 195
97.000000 -32.000000 53.845852 163 163 163
98.000000 -32.000000 54.200100 150 150 150
99.000000 -32.000000 54.908600 148 148 148
100.000000 -32.000000 54.554352 148 148 148
101.000000 -32.000000 54.554352 144 144 144
104.000000 -32.000000 19.129448 132 132 132
105.000000 -32.000000 20.192194 137 137 137
106.000000 -32.000000 19.483696 111 111 111
107.000000 -32.000000 19.837946 88 88 88
108.000000 -32.000000 21.254942 101 101 101
109.000000 -32.000000 20.546444 92 92 92
110.000000 -32.000000 19.837946 68 68 68
111.000000 -32.000000 19.837946 53 53 53
112.000000 -32.000000 20.900692 51 51 51
113.000000 -32.000000 24.797432 52 52 52
114.000000 -32.000000 26.922926 55 55 55
115.000000 -32.000000 28.694172 63 63 63
117.000000 -32.000000 32.236660 93 93 93
118.000000 -32.000000 33.299408 110 110 110
119.000000 -32.000000 35.424904 125 125 125
120.000000 -32.000000 37.196148 121 121 121
135.000000 -32.000000 0.000000 55 55 55
136.000000 -32.000000 0.000000 53 53 53
137.000000 -32.000000 0.000000 48 48 48
142.000000 -32.000000 0.000000 46 46 46
143.000000 -32.000000 0.000000 47 47 47
144.000000 -32.000000 0.000000 46 46 46
145.000000 -32.000000 0.000000 47 47 47
146.000000 -32.000000 0.000000 45 45 45
147.000000 -32.000000 0.000000 44 44 44
148.000000 -32.000000 3.542490 45 45 45
149.000000 -32.000000 6.022233 46 46 46
151.000000 -32.000000 0.000000 46 46 46
152.000000 -32.000000 0.000000 43 43 43
153.000000 -32.000000 0.000000 41 41 41
30.000000 -33.000000 0.000000 98 98 98
31.000000 -33.000000 0.000000 101 101 101
32.000000 -33.000000 0.000000 109 109 109
33.000000 -33.000000 0.000000 116 116 116
34.000000 -33.000000 0.000000 121 121 121
60.000000 -33.000000 54.554352 95 95 95
75.000000 -33.000000 6.022233 63 63 63
76.000000 -33.000000 8.501977 45 45 45
77.000000 -33.000000 9.564724 44 44 44
78.000000 -33.000000 10.273222 44 44 44
89.000000 -33.000000 52.074608 40 40 40
90.000000 -33.000000 52.783104 51 51 51
91.000000 -33.000000 53.845852 97 97 97
92.000000 -33.000000 54.200100 158 158 158
93.000000 -33.000000 54.200100 196 196 196
94.000000 -33.000000 53.491604 195 195 195
95.000000 -33.000000 52.428856 196 196 196
96.000000 -33.000000 52.428856 191 191 191
97.000000 -33.000000 53.491604 157 157 157
98.000000 -33.000000 54.200100 138 138 138
99.000000 -33.000000 54.554352 135 135 135
104.000000 -33.000000 20.546444 124 124 124
105.000000 -33.000000 23.380436 112 112 112
106.000000 -33.000000 21.609190 77 77 77
107.000000 -33.000000 21.609190 58 58 58
108.000000 -33.000000 23.380436 84 84 84
109.000000 -33.000000 24.088934 92 92 92
110.000000 -33.000000 21.609190 69 69 69
112.000000 -33.000000 24.088934 46 46 46
113.000000 -33.000000 25.505930 45 45 45
114.000000 -33.000000 27.631424 43 43 43
116.000000 -33.000000 31.528164 45 45 45
117.000000 -33.000000 32.590912 47 47 47
118.000000 -33.000000 33.653656 52 52 52
119.000000 -33.000000 35.424904 56 56 56
120.000000 -33.000000 36.841900 53 53 53
135.000000 -33.000000 0.000000 53 53 53
136.000000 -33.000000 0.000000 51 51 51
142.000000 -33.000000 0.000000 47 47 47
143.000000 -33.000000 0.000000 47 47 47
144.000000 -33.000000 0.000000 47 47 47
145.000000 -33.000000 0.000000 47 47 47
146.000000 -33.000000 0.000000 45 45 45
147.000000 -33.000000 0.000000 44 44 44
148.000000 -33.000000 3.188241 44 44 44
149.000000 -33.000000 3.542490 44 44 44
151.000000 -33.000000 0.000000 45 45 45
152.000000 -33.000000 0.000000 43 43 43
153.000000 -33.000000 0.000000 41 41 41
30.000000 -34.000000 0.000000 92 92 92
31.000000 -34.000000 0.000000 96 96 96
32.000000 -34.000000 0.000000 102 102 102
33.000000 -34.000000 0.000000 107 107 107
62.000000 -34.000000 14.524210 46 46 46
69.000000 -34.000000 76.163544 42 42 42
70.000000 -34.000000 79.351784 44 44 44
89.000000 -34.000000 53.137356 52 52 52
90.000000 -34.000000 53.137356 60 60 60
91.000000 -34.000000 54.200100 79 79 79
92.000000 -34.000000 54.554352 104 104 104
93.000000 -34.000000 54.200100 123 123 123
95.000000 -34.000000 53.137356 128 128 128
96.000000 -34.000000 52.428856 126 126 126
97.000000 -34.000000 53.491604 116 116 116
98.000000 -34.000000 54.200100 111 111 111
99.000000 -34.000000 54.554352 110 110 110
103.000000 -34.000000 20.900692 122 122 122
104.000000 -34.000000 22.317688 125 125 125
105.000000 -34.000000 24.443184 115 115 115
106.000000 -34.000000 23.734686 87 87 87
107.000000 -34.000000 23.734686 71 71 71
108.000000 -34.000000 24.443184 87 87 87
109.000000 -34.000000 24.797432 93 93 93
110.000000 -34.000000 23.734686 70 70 70
113.000000 -34.000000 25.860180 45 45 45
114.000000 -34.000000 27.631424 44 44 44
116.000000 -34.000000 31.882412 44 44 44
117.000000 -34.000000 32.945160 45 45 45
118.000000 -34.000000 34.007908 47 47 47
119.000000 -34.000000 35.070656 48 48 48
120.000000 -34.000000 36.133400 46 46 46
135.000000 -34.000000 0.000000 51 51 51
136.000000 -34.000000 0.000000 49 49 49
142.000000 -34.000000 0.000000 45 45 45
143.000000 -34.000000 0.000000 46 46 46
144.000000 -34.000000 0.000000 47 47 47
145.000000 -34.000000 0.000000 46 46 46
146.000000 -34.000000 0.000000 45 45 45
147.000000 -34.000000 0.000000 44 44 44
148.000000 -34.000000 3.188241 43 43 43
151.000000 -34.000000 0.000000 44 44 44
152.000000 -34.000000 0.000000 42 42 42
153.000000 -34.000000 0.000000 41 41 41
25.000000 -35.000000 0.000000 84 84 84
30.000000 -35.000000 0.000000 95 95 95
31.000000 -35.000000 0.000000 99 99 99
32.000000 -35.000000 0.000000 105 105 105
33.000000 -35.000000 0.000000 111 111 111
34.000000 -35.000000 0.000000 114 114 114
62.000000 -35.000000 15.586957 51 51 51
69.000000 -35.000000 77.226288 61 61 61
70.000000 -35.000000 81.123032 60 60 60
71.000000 -35.000000 81.831528 75 75 75
80.000000 -35.000000 76.872040 57 57 57
83.000000 -35.000000 72.266800 52 52 52
90.000000 -35.000000 53.845852 61 61 61
91.000000 -35.000000 54.200100 68 68 68
92.000000 -35.000000 54.908600 82 82 82
93.000000 -35.000000 54.908600 94 94 94
95.000000 -35.000000 53.491604 100 100 100
96.000000 -35.000000 53.137356 98 98 98
97.000000 -35.000000 53.845852 96 96 96
98.000000 -35.000000 54.554352 98 98 98
103.000000 -35.000000 21.254942 109 109 109
104.000000 -35.000000 23.026188 113 113 113
105.000000 -35.000000 25.151682 116 116 116
106.000000 -35.000000 24.443184 114 114 114
107.000000 -35.000000 24.797432 110 110 110
108.000000 -35.000000 25.151682 108 108 108
109.000000 -35.000000 25.505930 103 103 103
117.000000 -35.000000 33.299408 46 46 46
118.000000 -35.000000 34.007908 47 47 47
134.000000 -35.000000 0.000000 51 51 51
135.000000 -35.000000 0.000000 50 50 50
136.000000 -35.000000 0.000000 48 48 48
142.000000 -35.000000 0.000000 45 45 45
143.000000 -35.000000 0.000000 46 46 46
144.000000 -35.000000 0.000000 46 46 46
145.000000 -35.000000 0.000000 45 45 45
146.000000 -35.000000 0.000000 45 45 45
147.000000 -35.000000 0.000000 44 44 44
148.000000 -35.000000 3.542490 43 43 43
151.000000 -35.000000 0.000000 42 42 42
152.000000 -35.000000 0.000000 40 40 40
153.000000 -35.000000 0.000000 39 39 39
30.000000 -36.000000 0.000000 94 94 94
31.000000 -36.000000 0.000000 98 98 98
32.000000 -36.000000 0.000000 103 103 103
33.000000 -36.000000 0.000000 109 109 109
34.000000 -36.000000 0.000000 114 114 114
62.000000 -36.000000 17.712452 74 74 74
65.000000 -36.000000 30.465416 77 77 77
66.000000 -36.000000 34.362156 75 75 75
80.000000 -36.000000 76.163544 106 106 106
81.000000 -36.000000 75.455040 105 105 105
90.000000 -36.000000 53.845852 67 67 67
91.000000 -36.000000 54.200100 74 74 74
92.000000 -36.000000 55.262848 90 90 90
93.000000 -36.000000 54.908600 105 105 105
95.000000 -36.000000 53.845852 109 109 109
96.000000 -36.000000 53.137356 106 106 106
97.000000 -36.000000 54.200100 105 105 105
98.000000 -36.000000 54.554352 108 108 108
104.000000 -36.000000 24.088934 101 101 101
105.000000 -36.000000 25.505930 104 104 104
106.000000 -36.000000 25.151682 107 107 107
107.000000 -36.000000 25.505930 108 108 108
108.000000 -36.000000 25.860180 106 106 106
109.000000 -36.000000 25.860180 99 99 99
114.000000 -36.000000 28.694172 47 47 47
126.000000 -36.000000 85.019768 44 44 44
127.000000 -36.000000 85.019768 51 51 51
134.000000 -36.000000 0.000000 49 49 49
135.000000 -36.000000 0.000000 49 49 49
136.000000 -36.000000 0.000000 48 48 48
143.000000 -36.000000 0.000000 45 45 45
144.000000 -36.000000 0.000000 43 43 43
145.000000 -36.000000 0.000000 45 45 45
146.000000 -36.000000 0.000000 45 45 45
147.000000 -36.000000 0.000000 43 43 43
148.000000 -36.000000 3.188241 43 43 43
151.000000 -36.000000 0.000000 41 41 41
152.000000 -36.000000 0.000000 39 39 39
153.000000 -36.000000 0.000000 38 38 38
29.000000 -37.000000 0.000000 90 90 90
30.000000 -37.000000 0.000000 93 93 93
31.000000 -37.000000 0.000000 97 97 97
32.000000 -37.000000 0.000000 100 100 100
33.000000 -37.000000 0.000000 106 106 106
34.000000 -37.000000 0.000000 110 110 110
65.000000 -37.000000 30.465416 79 79 79
66.000000 -37.000000 34.362156 77 77 77
70.000000 -37.000000 85.019768 82 82 82
80.000000 -37.000000 74.746544 116 116 116
83.000000 -37.000000 70.849808 120 120 120
91.000000 -37.000000 53.491604 100 100 100
92.000000 -37.000000 55.262848 110 110 110
96.000000 -37.000000 53.137356 111 111 111
97.000000 -37.000000 53.845852 109 109 109
104.000000 -37.000000 24.443184 92 92 92
105.000000 -37.000000 25.860180 92 92 92
106.000000 -37.000000 25.860180 93 93 93
107.000000 -37.000000 25.860180 93 93 93
108.000000 -37.000000 25.860180 93 93 93
119.000000 -37.000000 85.019768 48 48 48
120.000000 -37.000000 85.019768 47 47 47
121.000000 -37.000000 85.019768 45 45 45
122.000000 -37.000000 85.019768 45 45 45
123.000000 -37.000000 85.019768 45 45 45
124.000000 -37.000000 85.019768 43 43 43
125.000000 -37.000000 85.019768 43 43 43
126.000000 -37.000000 85.019768 44 44 44
127.000000 -37.000000 85.019768 50 50 50
128.000000 -37.000000 85.019768 56 56 56
134.000000 -37.000000 0.000000 48 48 48
135.000000 -37.000000 0.000000 48 48 48
136.000000 -37.000000 0.000000 47 47 47
143.000000 -37.000000 0.000000 44 44 44
144.000000 -37.000000 0.000000 43 43 43
145.000000 -37.000000 0.000000 44 44 44
146.000000 -37.000000 0.000000 43 43 43
147.000000 -37.000000 0.000000 43 43 43
151.000000 -37.000000 0.000000 41 41 41
152.000000 -37.000000 0.000000 40 40 40
153.000000 -37.000000 0.000000 39 39 39
25.000000 -38.000000 0.000000 83 83 83
29.000000 -38.000000 0.000000 90 90 90
30.000000 -38.000000 0.000000 92 92 92
31.000000 -38.000000 0.000000 95 95 95
32.000000 -38.000000 0.000000 99 99 99
33.000000 -38.000000 0.000000 103 103 103
34.000000 -38.000000 0.000000 108 108 108
35.000000 -38.000000 3.896739 110 110 110
70.000000 -38.000000 85.019768 76 76 76
91.000000 -38.000000 52.074608 98 98 98
96.000000 -38.000000 51.366108 93 93 93
104.000000 -38.000000 24.443184 72 72 72
105.000000 -38.000000 25.505930 75 75 75
107.000000 -38.000000 25.860180 93 93 93
119.000000 -38.000000 85.019768 53 53 53
120.000000 -38.000000 85.019768 53 53 53
121.000000 -38.000000 85.019768 52 52 52
122.000000 -38.000000 85.019768 52 52 52
123.000000 -38.000000 85.019768 52 52 52
124.000000 -38.000000 85.019768 51 51 51
125.000000 -38.000000 85.019768 51 51 51
126.000000 -38.000000 85.019768 51 51 51
127.000000 -38.000000 85.019768 52 52 52
128.000000 -38.000000 85.019768 54 54 54
135.000000 -38.000000 0.000000 46 46 46
143.000000 -38.000000 0.000000 44 44 44
144.000000 -38.000000 0.000000 44 44 44
145.000000 -38.000000 0.000000 45 45 45
146.000000 -38.000000 0.000000 44 44 44
147.000000 -38.000000 0.000000 43 43 43
152.000000 -38.000000 0.000000 40 40 40
153.000000 -38.000000 0.000000 39 39 39
28.000000 -39.000000 0.000000 88 88 88
29.000000 -39.000000 0.000000 88 88 88
30.000000 -39.000000 0.000000 90 90 90
31.000000 -39.000000 0.000000 93 93 93
32.000000 -39.000000 0.000000 97 97 97
33.000000 -39.000000 0.000000 101 101 101
34.000000 -39.000000 0.000000 105 105 105
35.000000 -39.000000 6.022233 108 108 108
36.000000 -39.000000 9.564724 110 110 110
69.000000 -39.000000 85.019768 61 61 61
70.000000 -39.000000 85.019768 64 64 64
71.000000 -39.000000 85.019768 70 70 70
104.000000 -39.000000 24.797432 56 56 56
105.000000 -39.000000 25.505930 63 63 63
106.000000 -39.000000 25.860180 78 78 78
107.000000 -39.000000 26.214428 94 94 94
108.000000 -39.000000 26.568678 99 99 99
119.000000 -39.000000 85.019768 98 98 98
120.000000 -39.000000 85.019768 101 101 101
121.000000 -39.000000 85.019768 99 99 99
122.000000 -39.000000 85.019768 101 101 101
123.000000 -39.000000 85.019768 104 104 104
124.000000 -39.000000 85.019768 103 103 103
125.000000 -39.000000 85.019768 104 104 104
126.000000 -39.000000 85.019768 95 95 95
127.000000 -39.000000 85.019768 73 73 73
144.000000 -39.000000 0.000000 44 44 44
145.000000 -39.000000 0.000000 44 44 44
146.000000 -39.000000 0.000000 45 45 45
147.000000 -39.000000 0.000000 42 42 42
152.000000 -39.000000 0.000000 39 39 39
153.000000 -39.000000 0.000000 38 38 38
28.000000 -40.000000 0.000000 87 87 87
29.000000 -40.000000 0.000000 87 87 87
30.000000 -40.000000 0.000000 89 89 89
31.000000 -40.000000 0.000000 92 92 92
32.000000 -40.000000 0.000000 95 95 95
33.000000 -40.000000 0.000000 100 100 100
34.000000 -40.000000 0.000000 102 102 102
35.000000 -40.000000 6.376482 105 105 105
36.000000 -40.000000 9.918973 108 108 108
68.000000 -40.000000 85.019768 53 53 53
69.000000 -40.000000 85.019768 53 53 53
70.000000 -40.000000 85.019768 55 55 55
71.000000 -40.000000 85.019768 59 59 59
101.000000 -40.000000 24.088934 50 50 50
102.000000 -40.000000 25.505930 48 48 48
103.000000 -40.000000 25.505930 46 46 46
104.000000 -40.000000 25.505930 46 46 46
105.000000 -40.000000 25.505930 49 49 49
106.000000 -40.000000 25.860180 53 53 53
107.000000 -40.000000 26.568678 54 54 54
108.000000 -40.000000 26.568678 50 50 50
109.000000 -40.000000 26.922926 47 47 47
116.000000 -40.000000 32.945160 110 110 110
120.000000 -40.000000 85.019768 127 127 127
121.000000 -40.000000 85.019768 122 122 122
122.000000 -40.000000 85.019768 124 124 124
123.000000 -40.000000 85.019768 126 126 126
124.000000 -40.000000 85.019768 122 122 122
125.000000 -40.000000 85.019768 122 122 122
126.000000 -40.000000 85.019768 109 109 109
127.000000 -40.000000 85.019768 80 80 80
144.000000 -40.000000 0.000000 43 43 43
145.000000 -40.000000 0.000000 43 43 43
146.000000 -40.000000 0.000000 42 42 42
147.000000 -40.000000 0.000000 40 40 40
152.000000 -40.000000 0.000000 39 39 39
153.000000 -40.000000 0.000000 39 39 39
28.000000 -41.000000 0.000000 87 87 87
29.000000 -41.000000 0.000000 88 88 88
30.000000 -41.000000 0.000000 89 89 89
31.000000 -41.000000 0.000000 91 91 91
32.000000 -41.000000 0.000000 94 94 94
33.000000 -41.000000 0.000000 98 98 98
34.000000 -41.000000 0.000000 100 100 100
35.000000 -41.000000 6.022233 102 102 102
36.000000 -41.000000 9.564724 105 105 105
68.000000 -41.000000 85.019768 54 54 54
69.000000 -41.000000 85.019768 54 54 54
70.000000 -41.000000 85.019768 54 54 54
80.000000 -41.000000 72.621048 59 59 59
83.000000 -41.000000 72.266800 50 50 50
84.000000 -41.000000 73.329552 48 48 48
102.000000 -41.000000 25.151682 39 39 39
103.000000 -41.000000 25.151682 39 39 39
104.000000 -41.000000 25.151682 38 38 38
105.000000 -41.000000 25.151682 38 38 38
106.000000 -41.000000 25.505930 37 37 37
107.000000 -41.000000 26.214428 35 35 35
108.000000 -41.000000 26.214428 33 33 33
109.000000 -41.000000 26.214428 31 31 31
120.000000 -41.000000 85.019768 68 68 68
121.000000 -41.000000 85.019768 65 65 65
122.000000 -41.000000 85.019768 65 65 65
123.000000 -41.000000 85.019768 64 64 64
124.000000 -41.000000 85.019768 62 62 62
125.000000 -41.000000 85.019768 60 60 60
126.000000 -41.000000 85.019768 58 58 58
127.000000 -41.000000 85.019768 53 53 53
144.000000 -41.000000 0.000000 41 41 41
145.000000 -41.000000 0.000000 42 42 42
146.000000 -41.000000 0.000000 41 41 41
147.000000 -41.000000 0.000000 40 40 40
152.000000 -41.000000 0.000000 38 38 38
153.000000 -41.000000 0.000000 38 38 38
28.000000 -42.000000 0.000000 87 87 87
29.000000 -42.000000 0.000000 88 88 88
30.000000 -42.000000 0.000000 88 88 88
31.000000 -42.000000 0.000000 90 90 90
32.000000 -42.000000 0.000000 93 93 93
33.000000 -42.000000 0.000000 96 96 96
34.000000 -42.000000 0.000000 97 97 97
35.000000 -42.000000 5.313735 100 100 100
69.000000 -42.000000 85.019768 76 76 76
70.000000 -42.000000 85.019768 77 77 77
77.000000 -42.000000 73.683800 74 74 74
80.000000 -42.000000 72.621048 64 64 64
82.000000 -42.000000 71.558304 50 50 50
83.000000 -42.000000 72.975304 44 44 44
84.000000 -42.000000 74.746544 41 41 41
103.000000 -42.000000 25.505930 33 33 33
104.000000 -42.000000 25.505930 32 32 32
105.000000 -42.000000 25.151682 31 31 31
106.000000 -42.000000 25.505930 30 30 30
107.000000 -42.000000 26.214428 29 29 29
113.000000 -42.000000 0.000000 45 45 45
114.000000 -42.000000 0.000000 45 45 45
120.000000 -42.000000 85.019768 46 46 46
121.000000 -42.000000 85.019768 45 45 45
122.000000 -42.000000 85.019768 43 43 43
123.000000 -42.000000 85.019768 43 43 43
124.000000 -42.000000 85.019768 43 43 43
125.000000 -42.000000 85.019768 42 42 42
126.000000 -42.000000 85.019768 41 41 41
143.000000 -42.000000 0.000000 41 41 41
144.000000 -42.000000 0.000000 40 40 40
145.000000 -42.000000 0.000000 41 41 41
146.000000 -42.000000 0.000000 41 41 41
147.000000 -42.000000 0.000000 40 40 40
152.000000 -42.000000 0.000000 37 37 37
153.000000 -42.000000 0.000000 37 37 37
28.000000 -43.000000 0.000000 87 87 87
29.000000 -43.000000 0.000000 87 87 87
30.000000 -43.000000 0.000000 88 88 88
31.000000 -43.000000 0.000000 90 90 90
32.000000 -43.000000 0.000000 93 93 93
33.000000 -43.000000 0.000000 94 94 94
34.000000 -43.000000 0.000000 97 97 97
35.000000 -43.000000 5.313735 100 100 100
65.000000 -43.000000 0.000000 92 92 92
77.000000 -43.000000 73.683800 90 90 90
78.000000 -43.000000 75.455040 96 96 96
80.000000 -43.000000 72.975304 102 102 102
81.000000 -43.000000 71.912552 94 94 94
82.000000 -43.000000 71.912552 77 77 77
83.000000 -43.000000 73.329552 67 67 67
84.000000 -43.000000 75.100792 57 57 57
103.000000 -43.000000 25.151682 27 27 27
104.000000 -43.000000 25.151682 27 27 27
105.000000 -43.000000 24.443184 29 29 29
106.000000 -43.000000 25.151682 30 30 30
107.000000 -43.000000 26.214428 31 31 31
109.000000 -43.000000 25.860180 36 36 36
110.000000 -43.000000 26.922926 40 40 40
113.000000 -43.000000 0.000000 44 44 44
114.000000 -43.000000 0.000000 43 43 43
115.000000 -43.000000 0.000000 43 43 43
116.000000 -43.000000 0.000000 44 44 44
143.000000 -43.000000 0.000000 39 39 39
144.000000 -43.000000 0.000000 40 40 40
145.000000 -43.000000 0.000000 41 41 41
146.000000 -43.000000 0.000000 40 40 40
147.000000 -43.000000 0.000000 39 39 39
152.000000 -43.000000 0.000000 37 37 37
153.000000 -43.000000 0.000000 36 36 36
28.000000 -44.000000 0.000000 86 86 86
29.000000 -44.000000 0.000000 86 86 86
30.000000 -44.000000 0.000000 87 87 87
31.000000 -44.000000 0.000000 88 88 88
32.000000 -44.000000 0.000000 90 90 90
33.000000 -44.000000 0.000000 92 92 92
34.000000 -44.000000 0.000000 95 95 95
35.000000 -44.000000 5.313735 97 97 97
37.000000 -44.000000 9.918973 99 99 99
65.000000 -44.000000 0.000000 66 66 66
66.000000 -44.000000 0.000000 75 75 75
77.000000 -44.000000 73.683800 73 73 73
78.000000 -44.000000 75.455040 75 75 75
80.000000 -44.000000 73.329552 83 83 83
81.000000 -44.000000 72.266800 85 85 85
82.000000 -44.000000 72.266800 77 77 77
83.000000 -44.000000 74.038048 70 70 70
93.000000 -44.000000 60.930832 31 31 31
99.000000 -44.000000 15.586957 30 30 30
103.000000 -44.000000 23.026188 32 32 32
104.000000 -44.000000 23.026188 34 34 34
105.000000 -44.000000 22.317688 35 35 35
106.000000 -44.000000 24.088934 36 36 36
108.000000 -44.000000 24.797432 42 42 42
109.000000 -44.000000 25.151682 44 44 44
110.000000 -44.000000 26.568678 46 46 46
113.000000 -44.000000 0.000000 44 44 44
114.000000 -44.000000 0.000000 42 42 42
115.000000 -44.000000 0.000000 42 42 42
116.000000 -44.000000 0.000000 44 44 44
117.000000 -44.000000 0.000000 45 45 45
137.000000 -44.000000 57.034096 47 47 47
143.000000 -44.000000 0.000000 38 38 38
144.000000 -44.000000 0.000000 39 39 39
145.000000 -44.000000 0.000000 40 40 40
146.000000 -44.000000 0.000000 39 39 39
147.000000 -44.000000 0.000000 38 38 38
152.000000 -44.000000 0.000000 36 36 36
153.000000 -44.000000 0.000000 35 35 35
29.000000 -45.000000 0.000000 84 84 84
30.000000 -45.000000 0.000000 85 85 85
31.000000 -45.000000 0.000000 86 86 86
32.000000 -45.000000 0.000000 87 87 87
34.000000 -45.000000 0.000000 92 92 92
35.000000 -45.000000 5.313735 95 95 95
36.000000 -45.000000 8.501977 96 96 96
65.000000 -45.000000 0.000000 48 48 48
66.000000 -45.000000 0.000000 56 56 56
67.000000 -45.000000 0.000000 63 63 63
80.000000 -45.000000 73.683800 58 58 58
83.000000 -45.000000 74.392296 50 50 50
93.000000 -45.000000 63.410576 41 41 41
94.000000 -45.000000 64.473320 40 40 40
100.000000 -45.000000 18.775198 39 39 39
109.000000 -45.000000 24.088934 47 47 47
113.000000 -45.000000 0.000000 44 44 44
114.000000 -45.000000 0.000000 42 42 42
115.000000 -45.000000 0.000000 42 42 42
116.000000 -45.000000 0.000000 44 44 44
117.000000 -45.000000 0.000000 44 44 44
120.000000 -45.000000 0.000000 43 43 43
137.000000 -45.000000 57.388344 43 43 43
143.000000 -45.000000 0.000000 37 37 37
144.000000 -45.000000 0.000000 38 38 38
145.000000 -45.000000 0.000000 38 38 38
146.000000 -45.000000 0.000000 37 37 37
147.000000 -45.000000 0.000000 37 37 37
152.000000 -45.000000 0.000000 35 35 35
153.000000 -45.000000 0.000000 35 35 35
29.000000 -46.000000 0.000000 87 87 87
30.000000 -46.000000 0.000000 88 88 88
31.000000 -46.000000 0.000000 89 89 89
32.000000 -46.000000 0.000000 89 89 89
33.000000 -46.000000 3.188241 91 91 91
34.000000 -46.000000 0.000000 95 95 95
35.000000 -46.000000 4.959486 96 96 96
36.000000 -46.000000 7.793478 97 97 97
65.000000 -46.000000 0.000000 47 47 47
66.000000 -46.000000 0.000000 53 53 53
67.000000 -46.000000 0.000000 63 63 63
93.000000 -46.000000 63.764824 46 46 46
104.000000 -46.000000 18.775198 78 78 78
105.000000 -46.000000 19.483696 71 71 71
