ply
		format ascii 1.0
		element vertex 6107
		property float x
		property float y
		property float z
		property uchar red
		property uchar green
		property uchar blue
		end_header
117.000000 -35.000000 54.908600 174 174 174
121.000000 -35.000000 64.119072 140 140 140
122.000000 -35.000000 67.307312 135 135 135
123.000000 -35.000000 71.558304 131 131 131
124.000000 -35.000000 72.975304 125 125 125
129.000000 -35.000000 68.370064 117 117 117
130.000000 -35.000000 68.724312 117 117 117
131.000000 -35.000000 69.432808 119 119 119
132.000000 -35.000000 69.787056 118 118 118
133.000000 -35.000000 70.849808 114 114 114
144.000000 -35.000000 83.957024 100 100 100
145.000000 -35.000000 83.957024 95 95 95
146.000000 -35.000000 84.311272 93 93 93
147.000000 -35.000000 85.728264 90 90 90
148.000000 -35.000000 86.436760 88 88 88
149.000000 -35.000000 86.791016 88 88 88
150.000000 -35.000000 87.145264 88 88 88
151.000000 -35.000000 86.791016 90 90 90
152.000000 -35.000000 86.436760 94 94 94
153.000000 -35.000000 86.082512 99 99 99
154.000000 -35.000000 86.082512 101 101 101
40.000000 -36.000000 0.000000 74 74 74
41.000000 -36.000000 0.000000 75 75 75
44.000000 -36.000000 101.669472 36 36 36
45.000000 -36.000000 101.669472 36 36 36
46.000000 -36.000000 102.732216 37 37 37
47.000000 -36.000000 104.503464 38 38 38
48.000000 -36.000000 102.023720 38 38 38
49.000000 -36.000000 104.149216 40 40 40
50.000000 -36.000000 105.211960 40 40 40
62.000000 -36.000000 99.898224 96 96 96
63.000000 -36.000000 99.898224 90 90 90
64.000000 -36.000000 99.898224 113 113 113
65.000000 -36.000000 100.252472 165 165 165
66.000000 -36.000000 100.252472 176 176 176
67.000000 -36.000000 100.606728 178 178 178
68.000000 -36.000000 99.543976 179 179 179
69.000000 -36.000000 99.898224 179 179 179
70.000000 -36.000000 100.606728 179 179 179
71.000000 -36.000000 100.960976 177 177 177
72.000000 -36.000000 100.606728 177 177 177
73.000000 -36.000000 101.315224 173 173 173
74.000000 -36.000000 101.315224 133 133 133
75.000000 -36.000000 100.606728 71 71 71
76.000000 -36.000000 100.606728 61 61 61
77.000000 -36.000000 100.606728 81 81 81
78.000000 -36.000000 100.606728 88 88 88
79.000000 -36.000000 99.898224 88 88 88
91.000000 -36.000000 49.949112 108 108 108
92.000000 -36.000000 51.720360 109 109 109
93.000000 -36.000000 52.074608 111 111 111
94.000000 -36.000000 51.720360 113 113 113
95.000000 -36.000000 52.074608 126 126 126
97.000000 -36.000000 48.886368 160 160 160
98.000000 -36.000000 53.137356 187 187 187
99.000000 -36.000000 53.845852 219 219 219
100.000000 -36.000000 54.554352 240 240 240
101.000000 -36.000000 54.200100 248 248 248
102.000000 -36.000000 54.554352 251 251 251
103.000000 -36.000000 54.908600 252 252 252
104.000000 -36.000000 55.262848 250 250 250
105.000000 -36.000000 56.325596 242 242 242
106.000000 -36.000000 56.679844 233 233 233
107.000000 -36.000000 57.034096 225 225 225
108.000000 -36.000000 57.034096 216 216 216
109.000000 -36.000000 56.325596 211 211 211
110.000000 -36.000000 55.971348 209 209 209
111.000000 -36.000000 56.325596 208 208 208
112.000000 -36.000000 57.388344 209 209 209
113.000000 -36.000000 57.742592 209 209 209
114.000000 -36.000000 56.679844 207 207 207
115.000000 -36.000000 57.742592 201 201 201
116.000000 -36.000000 55.262848 188 188 188
117.000000 -36.000000 53.491604 171 171 171
118.000000 -36.000000 53.845852 155 155 155
119.000000 -36.000000 51.720360 147 147 147
123.000000 -36.000000 71.558304 135 135 135
124.000000 -36.000000 73.329552 129 129 129
131.000000 -36.000000 70.495560 123 123 123
132.000000 -36.000000 70.495560 123 123 123
133.000000 -36.000000 71.204056 118 118 118
134.000000 -36.000000 71.912552 112 112 112
139.000000 -36.000000 74.746544 112 112 112
141.000000 -36.000000 78.643288 115 115 115
142.000000 -36.000000 81.477280 111 111 111
143.000000 -36.000000 82.540024 108 108 108
144.000000 -36.000000 83.248520 106 106 106
145.000000 -36.000000 83.602768 101 101 101
146.000000 -36.000000 83.957024 97 97 97
147.000000 -36.000000 85.374016 94 94 94
148.000000 -36.000000 86.082512 90 90 90
149.000000 -36.000000 86.436760 90 90 90
150.000000 -36.000000 87.145264 91 91 91
151.000000 -36.000000 86.791016 94 94 94
152.000000 -36.000000 86.436760 97 97 97
153.000000 -36.000000 85.728264 99 99 99
154.000000 -36.000000 85.374016 102 102 102
38.000000 -37.000000 0.000000 79 79 79
39.000000 -37.000000 0.000000 82 82 82
40.000000 -37.000000 0.000000 84 84 84
41.000000 -37.000000 0.000000 81 81 81
44.000000 -37.000000 100.252472 36 36 36
45.000000 -37.000000 100.606728 37 37 37
46.000000 -37.000000 101.669472 38 38 38
47.000000 -37.000000 103.440720 38 38 38
48.000000 -37.000000 100.252472 39 39 39
49.000000 -37.000000 103.794968 42 42 42
50.000000 -37.000000 104.857712 45 45 45
56.000000 -37.000000 31.882412 113 113 113
57.000000 -37.000000 32.236660 107 107 107
62.000000 -37.000000 99.898224 100 100 100
63.000000 -37.000000 99.898224 96 96 96
64.000000 -37.000000 99.898224 115 115 115
65.000000 -37.000000 100.252472 164 164 164
66.000000 -37.000000 100.252472 175 175 175
67.000000 -37.000000 100.606728 176 176 176
68.000000 -37.000000 99.898224 177 177 177
69.000000 -37.000000 100.252472 177 177 177
70.000000 -37.000000 100.960976 178 178 178
71.000000 -37.000000 100.960976 177 177 177
72.000000 -37.000000 100.606728 175 175 175
73.000000 -37.000000 101.669472 174 174 174
74.000000 -37.000000 101.315224 156 156 156
75.000000 -37.000000 100.960976 91 91 91
76.000000 -37.000000 101.315224 60 60 60
77.000000 -37.000000 101.315224 77 77 77
78.000000 -37.000000 100.960976 92 92 92
79.000000 -37.000000 100.252472 92 92 92
86.000000 -37.000000 68.724312 105 105 105
87.000000 -37.000000 66.953064 107 107 107
92.000000 -37.000000 53.137356 114 114 114
93.000000 -37.000000 53.491604 117 117 117
94.000000 -37.000000 53.137356 125 125 125
95.000000 -37.000000 52.783104 146 146 146
96.000000 -37.000000 50.657612 179 179 179
97.000000 -37.000000 49.949112 210 210 210
98.000000 -37.000000 53.491604 231 231 231
99.000000 -37.000000 53.845852 245 245 245
100.000000 -37.000000 54.554352 251 251 251
101.000000 -37.000000 54.554352 252 252 252
102.000000 -37.000000 54.554352 252 252 252
103.000000 -37.000000 54.908600 252 252 252
104.000000 -37.000000 55.262848 251 251 251
105.000000 -37.000000 55.971348 247 247 247
106.000000 -37.000000 56.679844 238 238 238
107.000000 -37.000000 56.679844 230 230 230
108.000000 -37.000000 56.679844 221 221 221
109.000000 -37.000000 56.325596 215 215 215
110.000000 -37.000000 55.971348 213 213 213
111.000000 -37.000000 55.971348 210 210 210
112.000000 -37.000000 57.034096 209 209 209
113.000000 -37.000000 57.388344 210 210 210
114.000000 -37.000000 55.971348 210 210 210
115.000000 -37.000000 56.325596 206 206 206
117.000000 -37.000000 51.366108 174 174 174
118.000000 -37.000000 50.303364 155 155 155
133.000000 -37.000000 72.266800 118 118 118
134.000000 -37.000000 73.329552 113 113 113
137.000000 -37.000000 72.975304 111 111 111
138.000000 -37.000000 72.975304 112 112 112
139.000000 -37.000000 75.100792 114 114 114
140.000000 -37.000000 76.872040 116 116 116
141.000000 -37.000000 77.580536 118 118 118
142.000000 -37.000000 78.643288 116 116 116
143.000000 -37.000000 80.060280 112 112 112
144.000000 -37.000000 82.185776 109 109 109
145.000000 -37.000000 82.540024 106 106 106
146.000000 -37.000000 83.248520 105 105 105
147.000000 -37.000000 84.665520 102 102 102
148.000000 -37.000000 86.082512 96 96 96
149.000000 -37.000000 86.791016 93 93 93
150.000000 -37.000000 87.499512 92 92 92
151.000000 -37.000000 87.145264 96 96 96
152.000000 -37.000000 86.791016 99 99 99
153.000000 -37.000000 86.436760 97 97 97
154.000000 -37.000000 86.082512 98 98 98
38.000000 -38.000000 0.000000 80 80 80
39.000000 -38.000000 0.000000 83 83 83
40.000000 -38.000000 0.000000 90 90 90
41.000000 -38.000000 0.000000 78 78 78
44.000000 -38.000000 99.898224 35 35 35
45.000000 -38.000000 99.898224 37 37 37
46.000000 -38.000000 100.960976 38 38 38
47.000000 -38.000000 102.377968 39 39 39
48.000000 -38.000000 99.898224 42 42 42
49.000000 -38.000000 103.440720 47 47 47
50.000000 -38.000000 104.149216 56 56 56
55.000000 -38.000000 28.339922 114 114 114
56.000000 -38.000000 31.528164 115 115 115
57.000000 -38.000000 31.882412 108 108 108
61.000000 -38.000000 99.898224 104 104 104
62.000000 -38.000000 100.252472 103 103 103
63.000000 -38.000000 100.252472 101 101 101
64.000000 -38.000000 100.252472 118 118 118
65.000000 -38.000000 100.252472 163 163 163
66.000000 -38.000000 100.606728 174 174 174
67.000000 -38.000000 100.606728 174 174 174
68.000000 -38.000000 99.898224 175 175 175
69.000000 -38.000000 100.606728 176 176 176
70.000000 -38.000000 101.315224 176 176 176
71.000000 -38.000000 101.669472 176 176 176
72.000000 -38.000000 101.315224 175 175 175
73.000000 -38.000000 102.732216 173 173 173
74.000000 -38.000000 102.023720 167 167 167
75.000000 -38.000000 101.669472 119 119 119
76.000000 -38.000000 101.669472 64 64 64
77.000000 -38.000000 101.669472 67 67 67
78.000000 -38.000000 101.315224 90 90 90
79.000000 -38.000000 100.606728 96 96 96
86.000000 -38.000000 67.661568 105 105 105
87.000000 -38.000000 66.244568 108 108 108
94.000000 -38.000000 53.845852 137 137 137
95.000000 -38.000000 53.137356 164 164 164
96.000000 -38.000000 51.366108 206 206 206
97.000000 -38.000000 51.720360 239 239 239
98.000000 -38.000000 53.491604 249 249 249
99.000000 -38.000000 53.845852 251 251 251
100.000000 -38.000000 54.200100 252 252 252
101.000000 -38.000000 54.554352 252 252 252
102.000000 -38.000000 54.554352 252 252 252
103.000000 -38.000000 54.908600 252 252 252
104.000000 -38.000000 55.262848 252 252 252
105.000000 -38.000000 55.971348 250 250 250
106.000000 -38.000000 56.325596 244 244 244
107.000000 -38.000000 56.325596 234 234 234
108.000000 -38.000000 56.679844 226 226 226
109.000000 -38.000000 56.325596 219 219 219
110.000000 -38.000000 56.325596 214 214 214
111.000000 -38.000000 56.679844 212 212 212
112.000000 -38.000000 57.388344 210 210 210
113.000000 -38.000000 58.096840 208 208 208
114.000000 -38.000000 57.388344 209 209 209
115.000000 -38.000000 57.742592 207 207 207
116.000000 -38.000000 55.262848 198 198 198
117.000000 -38.000000 53.845852 182 182 182
124.000000 -38.000000 73.329552 139 139 139
125.000000 -38.000000 73.329552 132 132 132
133.000000 -38.000000 72.266800 121 121 121
134.000000 -38.000000 72.266800 115 115 115
135.000000 -38.000000 72.975304 113 113 113
136.000000 -38.000000 74.392296 113 113 113
137.000000 -38.000000 73.329552 114 114 114
138.000000 -38.000000 72.975304 115 115 115
139.000000 -38.000000 74.746544 117 117 117
140.000000 -38.000000 76.163544 118 118 118
141.000000 -38.000000 76.872040 119 119 119
142.000000 -38.000000 77.226288 119 119 119
143.000000 -38.000000 77.226288 116 116 116
144.000000 -38.000000 78.643288 114 114 114
145.000000 -38.000000 80.414528 111 111 111
146.000000 -38.000000 81.831528 110 110 110
147.000000 -38.000000 83.248520 108 108 108
148.000000 -38.000000 84.665520 105 105 105
149.000000 -38.000000 86.082512 102 102 102
150.000000 -38.000000 87.499512 99 99 99
151.000000 -38.000000 87.499512 97 97 97
152.000000 -38.000000 87.499512 95 95 95
153.000000 -38.000000 86.791016 93 93 93
154.000000 -38.000000 86.791016 96 96 96
37.000000 -39.000000 0.000000 84 84 84
38.000000 -39.000000 0.000000 86 86 86
39.000000 -39.000000 0.000000 86 86 86
40.000000 -39.000000 0.000000 95 95 95
42.000000 -39.000000 94.938744 36 36 36
43.000000 -39.000000 97.772736 33 33 33
44.000000 -39.000000 99.189728 35 35 35
45.000000 -39.000000 99.189728 37 37 37
46.000000 -39.000000 100.252472 39 39 39
47.000000 -39.000000 100.606728 42 42 42
48.000000 -39.000000 99.543976 49 49 49
49.000000 -39.000000 100.960976 59 59 59
50.000000 -39.000000 101.315224 71 71 71
51.000000 -39.000000 98.481232 81 81 81
55.000000 -39.000000 27.985674 116 116 116
56.000000 -39.000000 31.528164 116 116 116
57.000000 -39.000000 31.882412 110 110 110
59.000000 -39.000000 100.252472 109 109 109
60.000000 -39.000000 99.898224 109 109 109
61.000000 -39.000000 100.252472 107 107 107
62.000000 -39.000000 100.606728 106 106 106
63.000000 -39.000000 100.606728 104 104 104
64.000000 -39.000000 100.252472 120 120 120
65.000000 -39.000000 100.606728 163 163 163
66.000000 -39.000000 100.960976 174 174 174
67.000000 -39.000000 100.960976 173 173 173
68.000000 -39.000000 99.898224 173 173 173
69.000000 -39.000000 100.960976 173 173 173
70.000000 -39.000000 102.023720 174 174 174
71.000000 -39.000000 102.377968 175 175 175
72.000000 -39.000000 101.669472 174 174 174
73.000000 -39.000000 103.440720 173 173 173
74.000000 -39.000000 103.086472 172 172 172
75.000000 -39.000000 102.377968 146 146 146
76.000000 -39.000000 102.377968 80 80 80
77.000000 -39.000000 102.023720 61 61 61
78.000000 -39.000000 101.669472 88 88 88
79.000000 -39.000000 100.960976 110 110 110
80.000000 -39.000000 100.252472 103 103 103
94.000000 -39.000000 54.200100 146 146 146
95.000000 -39.000000 53.491604 177 177 177
96.000000 -39.000000 52.428856 222 222 222
97.000000 -39.000000 53.137356 248 248 248
98.000000 -39.000000 53.491604 252 252 252
99.000000 -39.000000 53.845852 252 252 252
100.000000 -39.000000 54.200100 252 252 252
101.000000 -39.000000 54.554352 252 252 252
102.000000 -39.000000 54.200100 252 252 252
103.000000 -39.000000 54.554352 252 252 252
104.000000 -39.000000 54.908600 252 252 252
105.000000 -39.000000 55.617096 252 252 252
106.000000 -39.000000 55.971348 248 248 248
107.000000 -39.000000 56.325596 238 238 238
108.000000 -39.000000 56.679844 228 228 228
109.000000 -39.000000 56.679844 220 220 220
110.000000 -39.000000 56.679844 215 215 215
111.000000 -39.000000 58.096840 212 212 212
112.000000 -39.000000 58.451092 210 210 210
113.000000 -39.000000 59.159588 207 207 207
114.000000 -39.000000 59.159588 205 205 205
115.000000 -39.000000 59.513836 204 204 204
116.000000 -39.000000 58.451092 198 198 198
117.000000 -39.000000 58.096840 186 186 186
120.000000 -39.000000 62.702080 150 150 150
121.000000 -39.000000 66.598816 146 146 146
124.000000 -39.000000 74.038048 139 139 139
135.000000 -39.000000 71.558304 116 116 116
136.000000 -39.000000 72.975304 117 117 117
137.000000 -39.000000 72.975304 116 116 116
138.000000 -39.000000 72.621048 117 117 117
139.000000 -39.000000 75.100792 119 119 119
140.000000 -39.000000 76.517792 122 122 122
141.000000 -39.000000 76.872040 122 122 122
142.000000 -39.000000 76.872040 119 119 119
143.000000 -39.000000 76.872040 117 117 117
144.000000 -39.000000 77.580536 116 116 116
145.000000 -39.000000 78.289032 114 114 114
146.000000 -39.000000 80.060280 112 112 112
147.000000 -39.000000 81.831528 110 110 110
148.000000 -39.000000 82.894272 108 108 108
149.000000 -39.000000 84.665520 107 107 107
150.000000 -39.000000 86.791016 103 103 103
151.000000 -39.000000 87.499512 99 99 99
152.000000 -39.000000 87.145264 93 93 93
153.000000 -39.000000 86.436760 90 90 90
154.000000 -39.000000 86.791016 93 93 93
37.000000 -40.000000 0.000000 76 76 76
38.000000 -40.000000 0.000000 84 84 84
42.000000 -40.000000 94.230240 35 35 35
43.000000 -40.000000 96.355736 34 34 34
44.000000 -40.000000 98.481232 36 36 36
45.000000 -40.000000 97.772736 39 39 39
46.000000 -40.000000 99.543976 43 43 43
48.000000 -40.000000 98.126984 62 62 62
49.000000 -40.000000 98.835480 74 74 74
51.000000 -40.000000 93.167496 91 91 91
54.000000 -40.000000 92.813248 119 119 119
58.000000 -40.000000 100.960976 116 116 116
59.000000 -40.000000 100.606728 112 112 112
60.000000 -40.000000 100.606728 111 111 111
61.000000 -40.000000 101.315224 110 110 110
62.000000 -40.000000 100.960976 109 109 109
63.000000 -40.000000 100.960976 107 107 107
64.000000 -40.000000 100.960976 122 122 122
65.000000 -40.000000 100.960976 162 162 162
66.000000 -40.000000 101.315224 172 172 172
67.000000 -40.000000 101.315224 172 172 172
68.000000 -40.000000 100.252472 172 172 172
69.000000 -40.000000 101.315224 173 173 173
70.000000 -40.000000 102.732216 173 173 173
71.000000 -40.000000 103.086472 173 173 173
72.000000 -40.000000 102.377968 172 172 172
73.000000 -40.000000 103.794968 172 172 172
74.000000 -40.000000 103.794968 172 172 172
75.000000 -40.000000 103.440720 162 162 162
76.000000 -40.000000 103.440720 106 106 106
77.000000 -40.000000 103.086472 74 74 74
78.000000 -40.000000 102.732216 103 103 103
79.000000 -40.000000 102.377968 117 117 117
80.000000 -40.000000 101.669472 111 111 111
81.000000 -40.000000 101.315224 104 104 104
93.000000 -40.000000 55.617096 134 134 134
94.000000 -40.000000 55.971348 155 155 155
95.000000 -40.000000 54.200100 188 188 188
96.000000 -40.000000 53.845852 231 231 231
97.000000 -40.000000 54.200100 250 250 250
98.000000 -40.000000 53.845852 252 252 252
99.000000 -40.000000 53.491604 252 252 252
100.000000 -40.000000 53.845852 252 252 252
101.000000 -40.000000 54.200100 252 252 252
102.000000 -40.000000 53.845852 252 252 252
103.000000 -40.000000 53.845852 252 252 252
104.000000 -40.000000 54.554352 252 252 252
105.000000 -40.000000 54.908600 252 252 252
106.000000 -40.000000 55.617096 250 250 250
107.000000 -40.000000 55.617096 242 242 242
108.000000 -40.000000 55.971348 231 231 231
109.000000 -40.000000 56.325596 222 222 222
110.000000 -40.000000 57.034096 216 216 216
111.000000 -40.000000 58.096840 213 213 213
112.000000 -40.000000 58.451092 210 210 210
113.000000 -40.000000 59.513836 206 206 206
114.000000 -40.000000 59.868088 200 200 200
115.000000 -40.000000 60.222336 197 197 197
116.000000 -40.000000 59.513836 194 194 194
117.000000 -40.000000 59.868088 186 186 186
119.000000 -40.000000 60.576584 159 159 159
120.000000 -40.000000 63.056328 152 152 152
121.000000 -40.000000 65.890320 148 148 148
122.000000 -40.000000 70.141312 144 144 144
136.000000 -40.000000 74.038048 120 120 120
137.000000 -40.000000 73.683800 117 117 117
138.000000 -40.000000 74.038048 117 117 117
139.000000 -40.000000 76.163544 120 120 120
140.000000 -40.000000 76.872040 126 126 126
141.000000 -40.000000 77.226288 128 128 128
142.000000 -40.000000 77.580536 124 124 124
143.000000 -40.000000 77.580536 119 119 119
144.000000 -40.000000 77.934784 117 117 117
145.000000 -40.000000 78.643288 116 116 116
146.000000 -40.000000 79.351784 113 113 113
147.000000 -40.000000 81.123032 111 111 111
148.000000 -40.000000 81.831528 109 109 109
149.000000 -40.000000 83.248520 108 108 108
150.000000 -40.000000 85.019768 106 106 106
151.000000 -40.000000 86.082512 104 104 104
152.000000 -40.000000 86.082512 99 99 99
153.000000 -40.000000 85.374016 97 97 97
37.000000 -41.000000 0.000000 88 88 88
41.000000 -41.000000 92.104752 43 43 43
42.000000 -41.000000 93.521744 37 37 37
43.000000 -41.000000 95.292992 36 36 36
44.000000 -41.000000 96.709984 38 38 38
45.000000 -41.000000 95.647240 44 44 44
46.000000 -41.000000 98.835480 53 53 53
49.000000 -41.000000 92.813248 87 87 87
50.000000 -41.000000 92.459000 94 94 94
51.000000 -41.000000 92.459000 100 100 100
52.000000 -41.000000 91.750496 107 107 107
53.000000 -41.000000 91.750496 114 114 114
54.000000 -41.000000 91.750496 123 123 123
55.000000 -41.000000 92.813248 121 121 121
58.000000 -41.000000 100.606728 119 119 119
59.000000 -41.000000 100.252472 115 115 115
60.000000 -41.000000 100.606728 115 115 115
61.000000 -41.000000 101.669472 114 114 114
62.000000 -41.000000 101.315224 113 113 113
63.000000 -41.000000 101.315224 111 111 111
64.000000 -41.000000 101.315224 124 124 124
65.000000 -41.000000 101.315224 162 162 162
66.000000 -41.000000 101.315224 170 170 170
67.000000 -41.000000 101.669472 170 170 170
68.000000 -41.000000 100.606728 171 171 171
69.000000 -41.000000 101.315224 171 171 171
70.000000 -41.000000 103.086472 172 172 172
71.000000 -41.000000 103.440720 172 172 172
72.000000 -41.000000 102.732216 172 172 172
73.000000 -41.000000 104.149216 172 172 172
74.000000 -41.000000 104.149216 172 172 172
75.000000 -41.000000 103.794968 168 168 168
76.000000 -41.000000 104.149216 142 142 142
77.000000 -41.000000 103.794968 118 118 118
78.000000 -41.000000 103.794968 121 121 121
79.000000 -41.000000 103.794968 108 108 108
80.000000 -41.000000 103.440720 101 101 101
81.000000 -41.000000 103.440720 103 103 103
92.000000 -41.000000 61.993580 124 124 124
93.000000 -41.000000 59.159588 135 135 135
94.000000 -41.000000 58.451092 159 159 159
95.000000 -41.000000 57.388344 198 198 198
96.000000 -41.000000 55.617096 237 237 237
97.000000 -41.000000 56.679844 251 251 251
98.000000 -41.000000 55.971348 252 252 252
99.000000 -41.000000 55.262848 252 252 252
100.000000 -41.000000 55.617096 252 252 252
101.000000 -41.000000 55.617096 252 252 252
102.000000 -41.000000 54.200100 252 252 252
103.000000 -41.000000 54.200100 252 252 252
104.000000 -41.000000 54.200100 252 252 252
105.000000 -41.000000 54.908600 252 252 252
106.000000 -41.000000 55.617096 251 251 251
107.000000 -41.000000 55.617096 246 246 246
108.000000 -41.000000 55.971348 235 235 235
109.000000 -41.000000 56.325596 226 226 226
110.000000 -41.000000 57.034096 219 219 219
111.000000 -41.000000 57.388344 214 214 214
112.000000 -41.000000 57.742592 210 210 210
113.000000 -41.000000 59.513836 204 204 204
114.000000 -41.000000 59.513836 197 197 197
115.000000 -41.000000 60.222336 191 191 191
116.000000 -41.000000 59.159588 187 187 187
117.000000 -41.000000 59.159588 181 181 181
126.000000 -41.000000 19.129448 141 141 141
127.000000 -41.000000 19.129448 137 137 137
128.000000 -41.000000 16.295456 132 132 132
129.000000 -41.000000 16.295456 137 137 137
130.000000 -41.000000 15.941206 143 143 143
136.000000 -41.000000 76.517792 135 135 135
137.000000 -41.000000 75.809296 119 119 119
138.000000 -41.000000 76.163544 114 114 114
139.000000 -41.000000 77.226288 119 119 119
140.000000 -41.000000 77.580536 125 125 125
141.000000 -41.000000 77.580536 130 130 130
142.000000 -41.000000 77.934784 130 130 130
143.000000 -41.000000 78.289032 125 125 125
144.000000 -41.000000 78.289032 120 120 120
145.000000 -41.000000 78.643288 118 118 118
146.000000 -41.000000 79.351784 114 114 114
147.000000 -41.000000 80.414528 112 112 112
148.000000 -41.000000 81.123032 111 111 111
149.000000 -41.000000 82.185776 108 108 108
150.000000 -41.000000 83.602768 106 106 106
151.000000 -41.000000 83.957024 106 106 106
152.000000 -41.000000 84.311272 104 104 104
153.000000 -41.000000 83.957024 102 102 102
39.000000 -42.000000 90.333504 98 98 98
40.000000 -42.000000 91.396248 54 54 54
41.000000 -42.000000 92.104752 43 43 43
42.000000 -42.000000 93.521744 38 38 38
43.000000 -42.000000 94.584488 38 38 38
44.000000 -42.000000 95.292992 44 44 44
45.000000 -42.000000 94.584488 54 54 54
47.000000 -42.000000 87.853760 79 79 79
48.000000 -42.000000 87.499512 89 89 89
49.000000 -42.000000 88.916504 97 97 97
50.000000 -42.000000 89.979256 105 105 105
51.000000 -42.000000 89.625008 112 112 112
52.000000 -42.000000 89.625008 119 119 119
53.000000 -42.000000 89.270752 126 126 126
54.000000 -42.000000 89.270752 134 134 134
55.000000 -42.000000 91.750496 131 131 131
58.000000 -42.000000 99.898224 128 128 128
59.000000 -42.000000 100.252472 124 124 124
60.000000 -42.000000 100.606728 125 125 125
61.000000 -42.000000 101.669472 125 125 125
62.000000 -42.000000 101.315224 123 123 123
63.000000 -42.000000 101.669472 120 120 120
64.000000 -42.000000 101.315224 130 130 130
65.000000 -42.000000 100.960976 162 162 162
66.000000 -42.000000 101.315224 170 170 170
67.000000 -42.000000 101.315224 169 169 169
68.000000 -42.000000 100.252472 169 169 169
69.000000 -42.000000 101.315224 169 169 169
70.000000 -42.000000 102.732216 170 170 170
71.000000 -42.000000 103.440720 170 170 170
72.000000 -42.000000 102.732216 170 170 170
73.000000 -42.000000 103.794968 171 171 171
74.000000 -42.000000 104.149216 171 171 171
75.000000 -42.000000 103.794968 169 169 169
76.000000 -42.000000 104.149216 162 162 162
77.000000 -42.000000 104.149216 139 139 139
78.000000 -42.000000 103.794968 120 120 120
79.000000 -42.000000 104.149216 89 89 89
80.000000 -42.000000 104.149216 74 74 74
81.000000 -42.000000 104.503464 92 92 92
82.000000 -42.000000 104.503464 101 101 101
91.000000 -42.000000 59.159588 120 120 120
92.000000 -42.000000 61.993580 126 126 126
93.000000 -42.000000 58.805340 138 138 138
94.000000 -42.000000 58.451092 163 163 163
95.000000 -42.000000 58.451092 202 202 202
96.000000 -42.000000 57.388344 239 239 239
97.000000 -42.000000 58.451092 251 251 251
98.000000 -42.000000 58.805340 252 252 252
99.000000 -42.000000 58.805340 252 252 252
100.000000 -42.000000 58.451092 252 252 252
101.000000 -42.000000 57.742592 252 252 252
102.000000 -42.000000 54.908600 252 252 252
103.000000 -42.000000 54.200100 252 252 252
104.000000 -42.000000 54.554352 252 252 252
105.000000 -42.000000 55.262848 252 252 252
106.000000 -42.000000 55.617096 252 252 252
107.000000 -42.000000 55.971348 248 248 248
108.000000 -42.000000 56.325596 239 239 239
109.000000 -42.000000 56.325596 228 228 228
110.000000 -42.000000 56.325596 223 223 223
111.000000 -42.000000 55.971348 216 216 216
112.000000 -42.000000 56.679844 207 207 207
113.000000 -42.000000 58.805340 198 198 198
114.000000 -42.000000 59.159588 193 193 193
115.000000 -42.000000 59.159588 187 187 187
116.000000 -42.000000 58.451092 182 182 182
117.000000 -42.000000 58.805340 177 177 177
118.000000 -42.000000 58.096840 169 169 169
119.000000 -42.000000 58.096840 160 160 160
126.000000 -42.000000 18.775198 157 157 157
127.000000 -42.000000 19.129448 137 137 137
128.000000 -42.000000 17.712452 124 124 124
138.000000 -42.000000 76.872040 110 110 110
139.000000 -42.000000 77.226288 111 111 111
140.000000 -42.000000 77.934784 120 120 120
141.000000 -42.000000 77.580536 127 127 127
142.000000 -42.000000 77.934784 131 131 131
143.000000 -42.000000 77.934784 130 130 130
144.000000 -42.000000 77.934784 124 124 124
145.000000 -42.000000 78.289032 119 119 119
146.000000 -42.000000 78.643288 115 115 115
147.000000 -42.000000 79.706032 115 115 115
148.000000 -42.000000 80.768776 115 115 115
149.000000 -42.000000 82.185776 111 111 111
150.000000 -42.000000 83.602768 108 108 108
151.000000 -42.000000 84.311272 108 108 108
152.000000 -42.000000 84.665520 108 108 108
153.000000 -42.000000 84.665520 105 105 105
36.000000 -43.000000 90.333504 115 115 115
38.000000 -43.000000 90.687752 106 106 106
39.000000 -43.000000 90.687752 62 62 62
40.000000 -43.000000 91.396248 47 47 47
41.000000 -43.000000 92.104752 43 43 43
42.000000 -43.000000 93.167496 40 40 40
43.000000 -43.000000 94.230240 44 44 44
44.000000 -43.000000 95.292992 55 55 55
45.000000 -43.000000 94.584488 67 67 67
47.000000 -43.000000 87.853760 89 89 89
48.000000 -43.000000 87.499512 98 98 98
49.000000 -43.000000 88.562256 106 106 106
50.000000 -43.000000 89.270752 126 126 126
51.000000 -43.000000 88.916504 143 143 143
52.000000 -43.000000 89.270752 149 149 149
53.000000 -43.000000 88.916504 155 155 155
54.000000 -43.000000 88.208008 159 159 159
55.000000 -43.000000 89.625008 158 158 158
60.000000 -43.000000 100.252472 155 155 155
61.000000 -43.000000 101.315224 155 155 155
62.000000 -43.000000 100.960976 153 153 153
63.000000 -43.000000 101.315224 152 152 152
64.000000 -43.000000 100.960976 157 157 157
65.000000 -43.000000 100.606728 169 169 169
66.000000 -43.000000 101.315224 166 166 166
67.000000 -43.000000 100.960976 163 163 163
68.000000 -43.000000 100.606728 166 166 166
69.000000 -43.000000 101.315224 168 168 168
70.000000 -43.000000 103.086472 169 169 169
71.000000 -43.000000 103.440720 170 170 170
72.000000 -43.000000 102.732216 170 170 170
73.000000 -43.000000 103.794968 169 169 169
74.000000 -43.000000 104.149216 170 170 170
75.000000 -43.000000 103.440720 169 169 169
76.000000 -43.000000 104.149216 166 166 166
77.000000 -43.000000 104.149216 146 146 146
78.000000 -43.000000 104.149216 102 102 102
79.000000 -43.000000 104.149216 67 67 67
80.000000 -43.000000 104.503464 54 54 54
81.000000 -43.000000 104.857712 66 66 66
82.000000 -43.000000 105.211960 90 90 90
83.000000 -43.000000 109.108704 100 100 100
91.000000 -43.000000 59.513836 123 123 123
92.000000 -43.000000 62.702080 130 130 130
93.000000 -43.000000 59.159588 142 142 142
94.000000 -43.000000 58.805340 167 167 167
95.000000 -43.000000 58.805340 204 204 204
96.000000 -43.000000 58.805340 239 239 239
97.000000 -43.000000 59.159588 251 251 251
98.000000 -43.000000 59.513836 252 252 252
99.000000 -43.000000 59.868088 252 252 252
100.000000 -43.000000 59.159588 252 252 252
101.000000 -43.000000 58.451092 252 252 252
102.000000 -43.000000 55.262848 252 252 252
103.000000 -43.000000 54.200100 252 252 252
104.000000 -43.000000 54.554352 252 252 252
105.000000 -43.000000 54.908600 252 252 252
106.000000 -43.000000 55.262848 252 252 252
107.000000 -43.000000 55.617096 250 250 250
108.000000 -43.000000 55.617096 242 242 242
109.000000 -43.000000 55.617096 231 231 231
110.000000 -43.000000 55.262848 222 222 222
111.000000 -43.000000 54.554352 215 215 215
112.000000 -43.000000 54.554352 203 203 203
113.000000 -43.000000 56.325596 195 195 195
114.000000 -43.000000 58.451092 191 191 191
115.000000 -43.000000 58.096840 187 187 187
116.000000 -43.000000 58.096840 180 180 180
119.000000 -43.000000 56.679844 159 159 159
120.000000 -43.000000 57.742592 154 154 154
126.000000 -43.000000 19.129448 144 144 144
127.000000 -43.000000 19.837946 115 115 115
134.000000 -43.000000 77.580536 108 108 108
135.000000 -43.000000 77.580536 88 88 88
136.000000 -43.000000 77.226288 81 81 81
137.000000 -43.000000 77.226288 109 109 109
138.000000 -43.000000 77.226288 115 115 115
139.000000 -43.000000 77.580536 108 108 108
140.000000 -43.000000 77.934784 116 116 116
141.000000 -43.000000 77.580536 126 126 126
142.000000 -43.000000 77.934784 131 131 131
143.000000 -43.000000 78.289032 132 132 132
144.000000 -43.000000 77.934784 127 127 127
145.000000 -43.000000 77.934784 121 121 121
146.000000 -43.000000 78.643288 117 117 117
147.000000 -43.000000 79.706032 118 118 118
148.000000 -43.000000 81.123032 119 119 119
149.000000 -43.000000 82.540024 117 117 117
150.000000 -43.000000 83.957024 114 114 114
151.000000 -43.000000 85.374016 113 113 113
152.000000 -43.000000 85.728264 113 113 113
153.000000 -43.000000 85.728264 115 115 115
36.000000 -44.000000 91.396248 125 125 125
37.000000 -44.000000 91.396248 113 113 113
38.000000 -44.000000 90.687752 67 67 67
39.000000 -44.000000 90.687752 49 49 49
40.000000 -44.000000 91.396248 46 46 46
41.000000 -44.000000 91.750496 45 45 45
42.000000 -44.000000 92.813248 46 46 46
43.000000 -44.000000 93.875992 54 54 54
44.000000 -44.000000 95.292992 66 66 66
45.000000 -44.000000 95.292992 78 78 78
46.000000 -44.000000 99.543976 88 88 88
48.000000 -44.000000 88.562256 103 103 103
49.000000 -44.000000 91.042000 114 114 114
50.000000 -44.000000 91.042000 144 144 144
51.000000 -44.000000 91.042000 152 152 152
52.000000 -44.000000 91.750496 155 155 155
55.000000 -44.000000 89.979256 168 168 168
60.000000 -44.000000 100.606728 163 163 163
61.000000 -44.000000 101.315224 164 164 164
62.000000 -44.000000 101.315224 162 162 162
63.000000 -44.000000 101.315224 159 159 159
64.000000 -44.000000 101.315224 160 160 160
65.000000 -44.000000 100.960976 163 163 163
66.000000 -44.000000 101.315224 154 154 154
67.000000 -44.000000 101.315224 155 155 155
68.000000 -44.000000 100.606728 163 163 163
69.000000 -44.000000 102.023720 167 167 167
70.000000 -44.000000 103.794968 168 168 168
71.000000 -44.000000 103.794968 169 169 169
72.000000 -44.000000 103.086472 170 170 170
73.000000 -44.000000 104.149216 168 168 168
74.000000 -44.000000 104.149216 168 168 168
75.000000 -44.000000 103.440720 168 168 168
76.000000 -44.000000 104.149216 167 167 167
77.000000 -44.000000 104.503464 150 150 150
78.000000 -44.000000 104.503464 95 95 95
79.000000 -44.000000 104.503464 62 62 62
80.000000 -44.000000 104.503464 51 51 51
81.000000 -44.000000 104.857712 50 50 50
82.000000 -44.000000 105.920464 65 65 65
83.000000 -44.000000 109.462952 90 90 90
91.000000 -44.000000 59.868088 128 128 128
92.000000 -44.000000 62.702080 135 135 135
93.000000 -44.000000 59.159588 148 148 148
94.000000 -44.000000 59.159588 171 171 171
95.000000 -44.000000 59.513836 206 206 206
96.000000 -44.000000 59.159588 239 239 239
97.000000 -44.000000 59.513836 251 251 251
98.000000 -44.000000 59.868088 252 252 252
99.000000 -44.000000 59.868088 252 252 252
100.000000 -44.000000 59.868088 252 252 252
101.000000 -44.000000 59.159588 252 252 252
102.000000 -44.000000 55.262848 252 252 252
103.000000 -44.000000 54.200100 252 252 252
104.000000 -44.000000 54.200100 252 252 252
105.000000 -44.000000 54.554352 252 252 252
106.000000 -44.000000 54.908600 252 252 252
107.000000 -44.000000 55.262848 251 251 251
108.000000 -44.000000 54.908600 246 246 246
109.000000 -44.000000 54.908600 233 233 233
110.000000 -44.000000 54.554352 221 221 221
111.000000 -44.000000 53.845852 213 213 213
112.000000 -44.000000 53.137356 204 204 204
113.000000 -44.000000 54.554352 197 197 197
114.000000 -44.000000 57.388344 193 193 193
115.000000 -44.000000 57.388344 188 188 188
116.000000 -44.000000 58.096840 180 180 180
133.000000 -44.000000 78.289032 90 90 90
134.000000 -44.000000 78.289032 69 69 69
135.000000 -44.000000 77.934784 58 58 58
136.000000 -44.000000 77.934784 72 72 72
137.000000 -44.000000 77.580536 115 115 115
138.000000 -44.000000 77.934784 126 126 126
139.000000 -44.000000 78.289032 119 119 119
140.000000 -44.000000 78.643288 117 117 117
141.000000 -44.000000 77.934784 124 124 124
142.000000 -44.000000 78.289032 130 130 130
143.000000 -44.000000 78.289032 131 131 131
144.000000 -44.000000 77.934784 131 131 131
145.000000 -44.000000 77.934784 128 128 128
146.000000 -44.000000 78.289032 123 123 123
147.000000 -44.000000 78.997536 119 119 119
148.000000 -44.000000 80.768776 120 120 120
149.000000 -44.000000 82.540024 120 120 120
150.000000 -44.000000 83.957024 117 117 117
151.000000 -44.000000 85.728264 114 114 114
152.000000 -44.000000 86.436760 114 114 114
153.000000 -44.000000 86.082512 117 117 117
36.000000 -45.000000 91.750496 118 118 118
37.000000 -45.000000 91.750496 72 72 72
38.000000 -45.000000 91.042000 47 47 47
39.000000 -45.000000 91.042000 45 45 45
40.000000 -45.000000 91.042000 46 46 46
41.000000 -45.000000 91.396248 50 50 50
42.000000 -45.000000 92.459000 55 55 55
43.000000 -45.000000 93.521744 64 64 64
44.000000 -45.000000 95.292992 76 76 76
45.000000 -45.000000 98.126984 87 87 87
46.000000 -45.000000 99.898224 94 94 94
60.000000 -45.000000 100.606728 114 114 114
61.000000 -45.000000 101.315224 120 120 120
62.000000 -45.000000 101.315224 119 119 119
63.000000 -45.000000 101.315224 112 112 112
64.000000 -45.000000 101.315224 117 117 117
65.000000 -45.000000 100.960976 136 136 136
66.000000 -45.000000 101.669472 152 152 152
67.000000 -45.000000 101.669472 159 159 159
68.000000 -45.000000 100.960976 161 161 161
69.000000 -45.000000 102.377968 166 166 166
70.000000 -45.000000 103.794968 167 167 167
71.000000 -45.000000 103.440720 168 168 168
72.000000 -45.000000 103.086472 168 168 168
73.000000 -45.000000 103.794968 164 164 164
74.000000 -45.000000 103.794968 159 159 159
75.000000 -45.000000 103.440720 165 165 165
76.000000 -45.000000 104.503464 167 167 167
78.000000 -45.000000 104.503464 117 117 117
79.000000 -45.000000 104.857712 72 72 72
80.000000 -45.000000 105.211960 55 55 55
81.000000 -45.000000 105.920464 49 49 49
82.000000 -45.000000 107.337456 50 50 50
83.000000 -45.000000 109.817200 66 66 66
84.000000 -45.000000 111.942696 95 95 95
91.000000 -45.000000 60.930832 137 137 137
92.000000 -45.000000 63.056328 146 146 146
93.000000 -45.000000 59.159588 160 160 160
94.000000 -45.000000 59.159588 182 182 182
95.000000 -45.000000 59.513836 213 213 213
96.000000 -45.000000 59.513836 241 241 241
97.000000 -45.000000 59.868088 251 251 251
98.000000 -45.000000 60.222336 252 252 252
99.000000 -45.000000 60.222336 252 252 252
100.000000 -45.000000 59.868088 252 252 252
101.000000 -45.000000 59.513836 252 252 252
102.000000 -45.000000 54.908600 252 252 252
103.000000 -45.000000 53.845852 252 252 252
104.000000 -45.000000 53.845852 252 252 252
105.000000 -45.000000 54.200100 252 252 252
106.000000 -45.000000 54.554352 252 252 252
107.000000 -45.000000 54.554352 251 251 251
108.000000 -45.000000 54.200100 247 247 247
109.000000 -45.000000 54.200100 235 235 235
110.000000 -45.000000 54.200100 223 223 223
111.000000 -45.000000 51.366108 215 215 215
112.000000 -45.000000 51.720360 206 206 206
113.000000 -45.000000 54.200100 197 197 197
114.000000 -45.000000 57.034096 191 191 191
115.000000 -45.000000 57.388344 186 186 186
116.000000 -45.000000 58.096840 179 179 179
132.000000 -45.000000 78.643288 146 146 146
133.000000 -45.000000 78.643288 131 131 131
134.000000 -45.000000 78.289032 77 77 77
135.000000 -45.000000 78.289032 55 55 55
136.000000 -45.000000 77.934784 73 73 73
137.000000 -45.000000 77.934784 119 119 119
138.000000 -45.000000 78.289032 134 134 134
139.000000 -45.000000 78.643288 132 132 132
140.000000 -45.000000 78.643288 124 124 124
141.000000 -45.000000 77.934784 122 122 122
142.000000 -45.000000 78.643288 126 126 126
143.000000 -45.000000 78.643288 129 129 129
144.000000 -45.000000 78.289032 133 133 133
145.000000 -45.000000 77.934784 134 134 134
146.000000 -45.000000 78.289032 128 128 128
147.000000 -45.000000 78.997536 121 121 121
148.000000 -45.000000 80.414528 118 118 118
149.000000 -45.000000 82.185776 119 119 119
150.000000 -45.000000 83.248520 118 118 118
151.000000 -45.000000 85.019768 114 114 114
152.000000 -45.000000 86.082512 112 112 112
153.000000 -45.000000 85.728264 113 113 113
36.000000 -46.000000 92.459000 76 76 76
37.000000 -46.000000 92.104752 46 46 46
38.000000 -46.000000 91.396248 42 42 42
39.000000 -46.000000 91.042000 45 45 45
40.000000 -46.000000 91.042000 51 51 51
41.000000 -46.000000 91.396248 57 57 57
42.000000 -46.000000 92.459000 65 65 65
43.000000 -46.000000 93.521744 73 73 73
44.000000 -46.000000 96.001488 83 83 83
45.000000 -46.000000 99.543976 92 92 92
46.000000 -46.000000 100.252472 99 99 99
47.000000 -46.000000 100.606728 104 104 104
62.000000 -46.000000 100.606728 103 103 103
63.000000 -46.000000 100.606728 100 100 100
64.000000 -46.000000 100.960976 105 105 105
65.000000 -46.000000 100.252472 124 124 124
66.000000 -46.000000 101.315224 146 146 146
67.000000 -46.000000 101.315224 156 156 156
68.000000 -46.000000 100.606728 160 160 160
69.000000 -46.000000 102.377968 165 165 165
70.000000 -46.000000 103.794968 166 166 166
71.000000 -46.000000 103.440720 166 166 166
72.000000 -46.000000 102.732216 166 166 166
73.000000 -46.000000 103.794968 159 159 159
74.000000 -46.000000 103.794968 146 146 146
75.000000 -46.000000 103.440720 160 160 160
78.000000 -46.000000 105.211960 141 141 141
79.000000 -46.000000 105.566208 90 90 90
80.000000 -46.000000 106.274712 64 64 64
81.000000 -46.000000 106.983208 52 52 52
82.000000 -46.000000 108.400200 47 47 47
83.000000 -46.000000 110.171448 50 50 50
84.000000 -46.000000 111.588448 71 71 71
86.000000 -46.000000 28.694172 121 121 121
91.000000 -46.000000 63.056328 145 145 145
92.000000 -46.000000 63.410576 156 156 156
93.000000 -46.000000 59.159588 173 173 173
94.000000 -46.000000 59.513836 196 196 196
95.000000 -46.000000 59.868088 223 223 223
96.000000 -46.000000 59.868088 244 244 244
97.000000 -46.000000 60.222336 251 251 251
98.000000 -46.000000 60.222336 252 252 252
99.000000 -46.000000 60.576584 252 252 252
100.000000 -46.000000 60.576584 252 252 252
101.000000 -46.000000 60.222336 252 252 252
102.000000 -46.000000 57.388344 252 252 252
103.000000 -46.000000 54.200100 252 252 252
104.000000 -46.000000 54.200100 252 252 252
105.000000 -46.000000 54.200100 252 252 252
106.000000 -46.000000 54.200100 252 252 252
107.000000 -46.000000 54.554352 251 251 251
108.000000 -46.000000 53.845852 246 246 246
109.000000 -46.000000 53.491604 236 236 236
110.000000 -46.000000 53.491604 224 224 224
111.000000 -46.000000 50.303364 214 214 214
112.000000 -46.000000 51.366108 207 207 207
113.000000 -46.000000 54.200100 198 198 198
114.000000 -46.000000 57.034096 188 188 188
132.000000 -46.000000 78.643288 156 156 156
133.000000 -46.000000 78.997536 116 116 116
134.000000 -46.000000 78.643288 73 73 73
135.000000 -46.000000 78.289032 55 55 55
136.000000 -46.000000 78.289032 69 69 69
137.000000 -46.000000 78.289032 116 116 116
138.000000 -46.000000 78.289032 134 134 134
139.000000 -46.000000 78.643288 134 134 134
140.000000 -46.000000 78.997536 129 129 129
141.000000 -46.000000 78.289032 123 123 123
142.000000 -46.000000 78.997536 122 122 122
143.000000 -46.000000 78.997536 128 128 128
144.000000 -46.000000 78.643288 131 131 131
145.000000 -46.000000 78.643288 134 134 134
146.000000 -46.000000 78.643288 132 132 132
147.000000 -46.000000 79.706032 126 126 126
150.000000 -46.000000 83.602768 119 119 119
151.000000 -46.000000 85.019768 117 117 117
152.000000 -46.000000 86.082512 112 112 112
36.000000 -47.000000 92.459000 46 46 46
37.000000 -47.000000 92.459000 40 40 40
38.000000 -47.000000 91.750496 43 43 43
39.000000 -47.000000 91.042000 50 50 50
40.000000 -47.000000 91.042000 58 58 58
41.000000 -47.000000 91.396248 65 65 65
42.000000 -47.000000 91.750496 72 72 72
43.000000 -47.000000 93.167496 81 81 81
44.000000 -47.000000 96.355736 90 90 90
45.000000 -47.000000 99.898224 97 97 97
46.000000 -47.000000 100.252472 102 102 102
47.000000 -47.000000 100.252472 107 107 107
48.000000 -47.000000 100.252472 111 111 111
64.000000 -47.000000 100.960976 103 103 103
65.000000 -47.000000 99.898224 115 115 115
66.000000 -47.000000 100.960976 130 130 130
67.000000 -47.000000 100.960976 142 142 142
68.000000 -47.000000 100.252472 157 157 157
69.000000 -47.000000 102.023720 164 164 164
70.000000 -47.000000 103.440720 165 165 165
71.000000 -47.000000 103.086472 166 166 166
72.000000 -47.000000 102.023720 166 166 166
73.000000 -47.000000 102.732216 164 164 164
74.000000 -47.000000 102.377968 160 160 160
75.000000 -47.000000 102.732216 164 164 164
76.000000 -47.000000 104.503464 166 166 166
78.000000 -47.000000 104.857712 155 155 155
79.000000 -47.000000 105.211960 113 113 113
80.000000 -47.000000 105.920464 77 77 77
81.000000 -47.000000 106.628960 61 61 61
82.000000 -47.000000 107.337456 50 50 50
83.000000 -47.000000 109.108704 47 47 47
84.000000 -47.000000 110.525696 52 52 52
85.000000 -47.000000 110.171448 78 78 78
93.000000 -47.000000 58.805340 184 184 184
94.000000 -47.000000 59.513836 206 206 206
95.000000 -47.000000 59.868088 229 229 229
96.000000 -47.000000 59.868088 246 246 246
97.000000 -47.000000 60.222336 252 252 252
98.000000 -47.000000 60.576584 252 252 252
99.000000 -47.000000 60.930832 252 252 252
100.000000 -47.000000 60.930832 252 252 252
101.000000 -47.000000 60.930832 252 252 252
102.000000 -47.000000 59.868088 252 252 252
103.000000 -47.000000 54.554352 252 252 252
104.000000 -47.000000 54.554352 252 252 252
105.000000 -47.000000 55.262848 252 252 252
106.000000 -47.000000 55.617096 252 252 252
107.000000 -47.000000 54.554352 251 251 251
108.000000 -47.000000 53.845852 247 247 247
109.000000 -47.000000 53.137356 238 238 238
110.000000 -47.000000 53.137356 224 224 224
111.000000 -47.000000 51.720360 214 214 214
112.000000 -47.000000 52.074608 207 207 207
132.000000 -47.000000 78.643288 97 97 97
133.000000 -47.000000 78.643288 73 73 73
134.000000 -47.000000 78.643288 79 79 79
135.000000 -47.000000 78.289032 62 62 62
136.000000 -47.000000 78.289032 62 62 62
137.000000 -47.000000 78.289032 108 108 108
138.000000 -47.000000 78.289032 135 135 135
139.000000 -47.000000 78.997536 136 136 136
140.000000 -47.000000 78.997536 132 132 132
141.000000 -47.000000 78.289032 129 129 129
142.000000 -47.000000 78.997536 129 129 129
143.000000 -47.000000 79.706032 133 133 133
144.000000 -47.000000 79.351784 133 133 133
145.000000 -47.000000 78.997536 131 131 131
146.000000 -47.000000 79.351784 131 131 131
147.000000 -47.000000 80.768776 129 129 129
150.000000 -47.000000 84.311272 117 117 117
151.000000 -47.000000 85.019768 116 116 116
152.000000 -47.000000 86.436760 114 114 114
36.000000 -48.000000 92.813248 39 39 39
37.000000 -48.000000 92.813248 41 41 41
38.000000 -48.000000 91.750496 48 48 48
39.000000 -48.000000 91.396248 57 57 57
40.000000 -48.000000 91.042000 66 66 66
41.000000 -48.000000 90.687752 71 71 71
42.000000 -48.000000 90.333504 79 79 79
43.000000 -48.000000 93.167496 86 86 86
44.000000 -48.000000 96.709984 93 93 93
45.000000 -48.000000 99.898224 101 101 101
46.000000 -48.000000 100.252472 105 105 105
47.000000 -48.000000 100.606728 109 109 109
55.000000 -48.000000 87.853760 98 98 98
56.000000 -48.000000 84.665520 105 105 105
60.000000 -48.000000 81.123032 98 98 98
66.000000 -48.000000 101.315224 131 131 131
67.000000 -48.000000 101.315224 146 146 146
68.000000 -48.000000 100.606728 155 155 155
69.000000 -48.000000 102.023720 162 162 162
70.000000 -48.000000 103.440720 164 164 164
71.000000 -48.000000 102.377968 165 165 165
72.000000 -48.000000 101.315224 165 165 165
73.000000 -48.000000 101.669472 165 165 165
74.000000 -48.000000 101.315224 165 165 165
75.000000 -48.000000 102.023720 166 166 166
76.000000 -48.000000 103.794968 165 165 165
77.000000 -48.000000 104.149216 164 164 164
78.000000 -48.000000 104.503464 161 161 161
79.000000 -48.000000 104.857712 134 134 134
80.000000 -48.000000 105.566208 91 91 91
81.000000 -48.000000 106.274712 74 74 74
82.000000 -48.000000 106.274712 60 60 60
83.000000 -48.000000 108.045952 50 50 50
84.000000 -48.000000 109.817200 48 48 48
85.000000 -48.000000 109.462952 56 56 56
86.000000 -48.000000 107.337456 90 90 90
87.000000 -48.000000 106.274712 129 129 129
93.000000 -48.000000 58.451092 194 194 194
94.000000 -48.000000 59.159588 213 213 213
95.000000 -48.000000 59.513836 232 232 232
96.000000 -48.000000 59.868088 247 247 247
97.000000 -48.000000 60.222336 252 252 252
98.000000 -48.000000 60.576584 252 252 252
99.000000 -48.000000 60.576584 252 252 252
100.000000 -48.000000 60.930832 252 252 252
101.000000 -48.000000 60.930832 252 252 252
102.000000 -48.000000 60.222336 252 252 252
103.000000 -48.000000 54.908600 252 252 252
104.000000 -48.000000 54.908600 252 252 252
105.000000 -48.000000 57.034096 252 252 252
106.000000 -48.000000 59.159588 252 252 252
108.000000 -48.000000 53.845852 248 248 248
109.000000 -48.000000 53.491604 239 239 239
110.000000 -48.000000 53.137356 226 226 226
111.000000 -48.000000 53.137356 215 215 215
112.000000 -48.000000 53.137356 207 207 207
115.000000 -48.000000 69.078560 178 178 178
116.000000 -48.000000 72.266800 173 173 173
132.000000 -48.000000 78.643288 60 60 60
133.000000 -48.000000 78.643288 57 57 57
134.000000 -48.000000 78.643288 74 74 74
135.000000 -48.000000 78.643288 62 62 62
136.000000 -48.000000 78.289032 53 53 53
137.000000 -48.000000 78.289032 87 87 87
138.000000 -48.000000 78.643288 130 130 130
139.000000 -48.000000 78.997536 139 139 139
140.000000 -48.000000 78.997536 137 137 137
141.000000 -48.000000 78.289032 134 134 134
142.000000 -48.000000 78.997536 134 134 134
143.000000 -48.000000 80.060280 135 135 135
144.000000 -48.000000 79.706032 131 131 131
145.000000 -48.000000 79.351784 123 123 123
146.000000 -48.000000 79.351784 120 120 120
147.000000 -48.000000 81.123032 121 121 121
151.000000 -48.000000 83.957024 115 115 115
36.000000 -49.000000 93.167496 38 38 38
37.000000 -49.000000 92.813248 44 44 44
38.000000 -49.000000 92.104752 55 55 55
39.000000 -49.000000 91.042000 65 65 65
40.000000 -49.000000 89.625008 72 72 72
41.000000 -49.000000 89.270752 77 77 77
42.000000 -49.000000 88.562256 83 83 83
43.000000 -49.000000 92.104752 89 89 89
44.000000 -49.000000 95.647240 96 96 96
45.000000 -49.000000 100.252472 103 103 103
46.000000 -49.000000 100.606728 107 107 107
55.000000 -49.000000 87.499512 100 100 100
56.000000 -49.000000 83.957024 103 103 103
57.000000 -49.000000 83.248520 100 100 100
60.000000 -49.000000 81.123032 101 101 101
61.000000 -49.000000 81.831528 98 98 98
66.000000 -49.000000 100.960976 135 135 135
67.000000 -49.000000 100.960976 153 153 153
68.000000 -49.000000 100.960976 157 157 157
69.000000 -49.000000 102.023720 161 161 161
