ply
		format ascii 1.0
		element vertex 11481
		property float x
		property float y
		property float z
		property uchar red
		property uchar green
		property uchar blue
		end_header
135.000000 -67.000000 83.957024 104 104 104
136.000000 -67.000000 83.602768 112 112 112
137.000000 -67.000000 83.248520 125 125 125
138.000000 -67.000000 83.248520 132 132 132
139.000000 -67.000000 83.248520 136 136 136
140.000000 -67.000000 83.602768 138 138 138
141.000000 -67.000000 83.957024 136 136 136
142.000000 -67.000000 84.665520 129 129 129
143.000000 -67.000000 85.019768 124 124 124
144.000000 -67.000000 85.728264 118 118 118
145.000000 -67.000000 86.082512 115 115 115
146.000000 -67.000000 86.082512 115 115 115
147.000000 -67.000000 86.082512 117 117 117
148.000000 -67.000000 86.082512 117 117 117
149.000000 -67.000000 86.436760 117 117 117
150.000000 -67.000000 86.791016 120 120 120
151.000000 -67.000000 87.499512 122 122 122
152.000000 -67.000000 88.208008 122 122 122
153.000000 -67.000000 88.562256 122 122 122
154.000000 -67.000000 88.562256 121 121 121
155.000000 -67.000000 88.562256 122 122 122
156.000000 -67.000000 88.208008 125 125 125
157.000000 -67.000000 88.208008 127 127 127
158.000000 -67.000000 87.499512 127 127 127
31.000000 -68.000000 99.898224 27 27 27
32.000000 -68.000000 100.960976 34 34 34
33.000000 -68.000000 100.960976 45 45 45
34.000000 -68.000000 100.606728 56 56 56
35.000000 -68.000000 99.898224 63 63 63
36.000000 -68.000000 99.189728 69 69 69
37.000000 -68.000000 98.835480 75 75 75
38.000000 -68.000000 98.481232 79 79 79
39.000000 -68.000000 98.481232 83 83 83
40.000000 -68.000000 98.835480 87 87 87
41.000000 -68.000000 99.898224 91 91 91
42.000000 -68.000000 100.960976 95 95 95
43.000000 -68.000000 100.960976 97 97 97
44.000000 -68.000000 100.960976 98 98 98
45.000000 -68.000000 100.606728 99 99 99
46.000000 -68.000000 100.606728 100 100 100
47.000000 -68.000000 100.606728 100 100 100
48.000000 -68.000000 100.606728 101 101 101
49.000000 -68.000000 100.606728 101 101 101
50.000000 -68.000000 100.252472 101 101 101
51.000000 -68.000000 100.252472 101 101 101
52.000000 -68.000000 100.252472 100 100 100
53.000000 -68.000000 99.898224 100 100 100
54.000000 -68.000000 97.418480 98 98 98
55.000000 -68.000000 97.418480 98 98 98
56.000000 -68.000000 99.543976 99 99 99
57.000000 -68.000000 99.543976 99 99 99
58.000000 -68.000000 98.835480 99 99 99
59.000000 -68.000000 99.543976 99 99 99
60.000000 -68.000000 98.835480 101 101 101
61.000000 -68.000000 98.126984 102 102 102
62.000000 -68.000000 96.355736 102 102 102
63.000000 -68.000000 96.355736 103 103 103
64.000000 -68.000000 96.355736 104 104 104
65.000000 -68.000000 96.355736 104 104 104
66.000000 -68.000000 97.064232 104 104 104
67.000000 -68.000000 97.772736 105 105 105
68.000000 -68.000000 98.481232 105 105 105
69.000000 -68.000000 99.543976 105 105 105
70.000000 -68.000000 99.898224 106 106 106
71.000000 -68.000000 100.960976 105 105 105
72.000000 -68.000000 101.669472 102 102 102
73.000000 -68.000000 101.669472 99 99 99
74.000000 -68.000000 101.315224 99 99 99
75.000000 -68.000000 100.960976 102 102 102
76.000000 -68.000000 100.252472 104 104 104
77.000000 -68.000000 99.189728 104 104 104
78.000000 -68.000000 99.189728 102 102 102
79.000000 -68.000000 99.189728 100 100 100
80.000000 -68.000000 99.189728 94 94 94
81.000000 -68.000000 99.189728 73 73 73
82.000000 -68.000000 99.189728 54 54 54
83.000000 -68.000000 99.189728 47 47 47
84.000000 -68.000000 98.835480 46 46 46
85.000000 -68.000000 98.481232 55 55 55
86.000000 -68.000000 98.126984 58 58 58
87.000000 -68.000000 97.064232 51 51 51
88.000000 -68.000000 96.709984 47 47 47
89.000000 -68.000000 96.355736 48 48 48
90.000000 -68.000000 95.647240 75 75 75
91.000000 -68.000000 95.647240 169 169 169
92.000000 -68.000000 95.292992 220 220 220
93.000000 -68.000000 95.647240 228 228 228
94.000000 -68.000000 96.355736 230 230 230
95.000000 -68.000000 96.355736 228 228 228
96.000000 -68.000000 96.709984 231 231 231
97.000000 -68.000000 97.064232 236 236 236
98.000000 -68.000000 97.064232 227 227 227
99.000000 -68.000000 96.355736 179 179 179
100.000000 -68.000000 83.957024 204 204 204
101.000000 -68.000000 82.185776 235 235 235
102.000000 -68.000000 82.185776 236 236 236
103.000000 -68.000000 81.831528 233 233 233
104.000000 -68.000000 82.894272 229 229 229
105.000000 -68.000000 82.894272 222 222 222
106.000000 -68.000000 82.894272 216 216 216
107.000000 -68.000000 81.831528 209 209 209
108.000000 -68.000000 81.123032 202 202 202
109.000000 -68.000000 80.768776 197 197 197
110.000000 -68.000000 81.123032 191 191 191
111.000000 -68.000000 82.540024 187 187 187
112.000000 -68.000000 82.894272 183 183 183
113.000000 -68.000000 82.894272 178 178 178
114.000000 -68.000000 81.831528 175 175 175
115.000000 -68.000000 78.289032 174 174 174
116.000000 -68.000000 76.163544 171 171 171
117.000000 -68.000000 77.580536 167 167 167
118.000000 -68.000000 78.289032 162 162 162
119.000000 -68.000000 78.643288 156 156 156
120.000000 -68.000000 78.997536 150 150 150
121.000000 -68.000000 79.351784 144 144 144
122.000000 -68.000000 80.060280 141 141 141
123.000000 -68.000000 79.351784 138 138 138
124.000000 -68.000000 78.997536 138 138 138
125.000000 -68.000000 78.289032 138 138 138
126.000000 -68.000000 78.643288 139 139 139
127.000000 -68.000000 79.706032 141 141 141
128.000000 -68.000000 80.768776 139 139 139
129.000000 -68.000000 81.477280 135 135 135
130.000000 -68.000000 82.540024 131 131 131
131.000000 -68.000000 83.248520 127 127 127
132.000000 -68.000000 83.957024 125 125 125
133.000000 -68.000000 84.311272 125 125 125
134.000000 -68.000000 84.665520 120 120 120
135.000000 -68.000000 84.311272 113 113 113
136.000000 -68.000000 84.311272 115 115 115
137.000000 -68.000000 83.957024 126 126 126
138.000000 -68.000000 83.602768 133 133 133
139.000000 -68.000000 83.602768 135 135 135
140.000000 -68.000000 83.957024 137 137 137
141.000000 -68.000000 84.311272 137 137 137
142.000000 -68.000000 84.665520 131 131 131
143.000000 -68.000000 85.019768 125 125 125
144.000000 -68.000000 86.082512 120 120 120
145.000000 -68.000000 86.436760 116 116 116
146.000000 -68.000000 86.436760 114 114 114
147.000000 -68.000000 86.436760 113 113 113
148.000000 -68.000000 86.436760 114 114 114
149.000000 -68.000000 86.791016 115 115 115
150.000000 -68.000000 87.499512 116 116 116
151.000000 -68.000000 87.853760 119 119 119
152.000000 -68.000000 88.562256 121 121 121
153.000000 -68.000000 88.916504 122 122 122
154.000000 -68.000000 88.916504 122 122 122
155.000000 -68.000000 88.562256 121 121 121
156.000000 -68.000000 88.562256 122 122 122
157.000000 -68.000000 88.562256 125 125 125
158.000000 -68.000000 87.853760 126 126 126
31.000000 -69.000000 101.315224 26 26 26
32.000000 -69.000000 101.669472 32 32 32
33.000000 -69.000000 101.315224 43 43 43
34.000000 -69.000000 100.960976 53 53 53
35.000000 -69.000000 100.606728 62 62 62
36.000000 -69.000000 99.898224 67 67 67
37.000000 -69.000000 99.543976 73 73 73
38.000000 -69.000000 99.189728 77 77 77
39.000000 -69.000000 99.189728 81 81 81
40.000000 -69.000000 99.898224 85 85 85
41.000000 -69.000000 100.960976 89 89 89
42.000000 -69.000000 101.315224 92 92 92
43.000000 -69.000000 101.315224 95 95 95
44.000000 -69.000000 101.315224 96 96 96
45.000000 -69.000000 101.315224 98 98 98
46.000000 -69.000000 101.315224 99 99 99
47.000000 -69.000000 101.315224 99 99 99
48.000000 -69.000000 101.315224 99 99 99
49.000000 -69.000000 101.315224 99 99 99
50.000000 -69.000000 100.960976 100 100 100
51.000000 -69.000000 100.252472 101 101 101
52.000000 -69.000000 99.898224 101 101 101
53.000000 -69.000000 98.835480 100 100 100
54.000000 -69.000000 98.481232 100 100 100
55.000000 -69.000000 98.481232 99 99 99
56.000000 -69.000000 100.606728 100 100 100
57.000000 -69.000000 100.606728 101 101 101
58.000000 -69.000000 99.543976 101 101 101
59.000000 -69.000000 99.898224 101 101 101
60.000000 -69.000000 99.898224 102 102 102
61.000000 -69.000000 98.835480 103 103 103
62.000000 -69.000000 97.418480 103 103 103
63.000000 -69.000000 96.355736 104 104 104
64.000000 -69.000000 97.418480 104 104 104
65.000000 -69.000000 97.418480 104 104 104
66.000000 -69.000000 97.772736 105 105 105
67.000000 -69.000000 98.481232 105 105 105
68.000000 -69.000000 99.543976 106 106 106
69.000000 -69.000000 99.898224 105 105 105
70.000000 -69.000000 100.252472 105 105 105
71.000000 -69.000000 101.669472 105 105 105
72.000000 -69.000000 101.669472 105 105 105
73.000000 -69.000000 101.669472 103 103 103
74.000000 -69.000000 101.669472 102 102 102
75.000000 -69.000000 100.960976 103 103 103
76.000000 -69.000000 98.835480 103 103 103
77.000000 -69.000000 98.481232 102 102 102
78.000000 -69.000000 97.772736 100 100 100
79.000000 -69.000000 98.126984 97 97 97
80.000000 -69.000000 98.835480 90 90 90
81.000000 -69.000000 99.189728 66 66 66
82.000000 -69.000000 99.189728 46 46 46
83.000000 -69.000000 99.189728 41 41 41
84.000000 -69.000000 98.835480 42 42 42
85.000000 -69.000000 98.481232 49 49 49
86.000000 -69.000000 97.772736 51 51 51
87.000000 -69.000000 96.709984 47 47 47
88.000000 -69.000000 96.355736 45 45 45
89.000000 -69.000000 96.355736 48 48 48
90.000000 -69.000000 96.001488 82 82 82
91.000000 -69.000000 95.647240 163 163 163
92.000000 -69.000000 95.647240 205 205 205
93.000000 -69.000000 96.001488 220 220 220
94.000000 -69.000000 96.355736 226 226 226
95.000000 -69.000000 96.355736 224 224 224
96.000000 -69.000000 96.709984 225 225 225
97.000000 -69.000000 96.709984 231 231 231
98.000000 -69.000000 96.709984 227 227 227
99.000000 -69.000000 96.355736 180 180 180
100.000000 -69.000000 95.292992 198 198 198
101.000000 -69.000000 83.248520 231 231 231
102.000000 -69.000000 82.894272 231 231 231
103.000000 -69.000000 82.540024 229 229 229
104.000000 -69.000000 82.540024 227 227 227
105.000000 -69.000000 82.894272 223 223 223
106.000000 -69.000000 82.894272 217 217 217
107.000000 -69.000000 82.894272 211 211 211
108.000000 -69.000000 81.831528 205 205 205
109.000000 -69.000000 81.123032 200 200 200
110.000000 -69.000000 81.123032 194 194 194
111.000000 -69.000000 81.477280 187 187 187
112.000000 -69.000000 82.894272 183 183 183
113.000000 -69.000000 82.894272 178 178 178
114.000000 -69.000000 81.123032 175 175 175
115.000000 -69.000000 74.038048 172 172 172
116.000000 -69.000000 74.038048 170 170 170
117.000000 -69.000000 76.163544 166 166 166
118.000000 -69.000000 77.580536 162 162 162
119.000000 -69.000000 78.643288 158 158 158
120.000000 -69.000000 79.351784 153 153 153
121.000000 -69.000000 80.060280 148 148 148
122.000000 -69.000000 80.414528 147 147 147
123.000000 -69.000000 81.123032 144 144 144
124.000000 -69.000000 81.123032 141 141 141
125.000000 -69.000000 80.768776 141 141 141
126.000000 -69.000000 80.768776 140 140 140
127.000000 -69.000000 81.477280 142 142 142
128.000000 -69.000000 81.831528 142 142 142
129.000000 -69.000000 82.894272 138 138 138
130.000000 -69.000000 83.248520 135 135 135
131.000000 -69.000000 83.957024 133 133 133
132.000000 -69.000000 84.311272 131 131 131
133.000000 -69.000000 85.019768 132 132 132
134.000000 -69.000000 85.019768 130 130 130
135.000000 -69.000000 85.019768 124 124 124
136.000000 -69.000000 85.019768 121 121 121
137.000000 -69.000000 84.665520 126 126 126
138.000000 -69.000000 84.311272 133 133 133
139.000000 -69.000000 84.311272 135 135 135
140.000000 -69.000000 84.311272 135 135 135
141.000000 -69.000000 84.665520 134 134 134
142.000000 -69.000000 85.019768 133 133 133
143.000000 -69.000000 85.019768 128 128 128
144.000000 -69.000000 86.082512 122 122 122
145.000000 -69.000000 86.082512 117 117 117
146.000000 -69.000000 86.436760 115 115 115
147.000000 -69.000000 86.436760 114 114 114
148.000000 -69.000000 87.145264 113 113 113
149.000000 -69.000000 87.499512 113 113 113
150.000000 -69.000000 87.853760 114 114 114
151.000000 -69.000000 88.562256 116 116 116
152.000000 -69.000000 88.916504 119 119 119
153.000000 -69.000000 89.270752 120 120 120
154.000000 -69.000000 89.270752 121 121 121
155.000000 -69.000000 89.270752 121 121 121
156.000000 -69.000000 88.916504 120 120 120
157.000000 -69.000000 88.562256 121 121 121
158.000000 -69.000000 87.853760 123 123 123
31.000000 -70.000000 101.669472 26 26 26
32.000000 -70.000000 101.669472 30 30 30
33.000000 -70.000000 101.669472 39 39 39
34.000000 -70.000000 100.960976 50 50 50
35.000000 -70.000000 100.606728 59 59 59
36.000000 -70.000000 100.252472 65 65 65
37.000000 -70.000000 99.898224 70 70 70
38.000000 -70.000000 99.898224 75 75 75
39.000000 -70.000000 99.898224 79 79 79
40.000000 -70.000000 100.606728 83 83 83
41.000000 -70.000000 101.669472 87 87 87
42.000000 -70.000000 101.669472 90 90 90
43.000000 -70.000000 101.669472 93 93 93
44.000000 -70.000000 101.669472 95 95 95
45.000000 -70.000000 101.669472 96 96 96
46.000000 -70.000000 101.669472 97 97 97
47.000000 -70.000000 102.023720 96 96 96
48.000000 -70.000000 102.023720 96 96 96
49.000000 -70.000000 101.315224 97 97 97
50.000000 -70.000000 100.960976 98 98 98
51.000000 -70.000000 100.252472 100 100 100
52.000000 -70.000000 99.543976 101 101 101
53.000000 -70.000000 98.835480 101 101 101
54.000000 -70.000000 98.481232 100 100 100
55.000000 -70.000000 98.481232 100 100 100
56.000000 -70.000000 100.252472 100 100 100
57.000000 -70.000000 100.252472 100 100 100
58.000000 -70.000000 99.898224 101 101 101
59.000000 -70.000000 100.252472 102 102 102
60.000000 -70.000000 100.252472 102 102 102
61.000000 -70.000000 98.835480 102 102 102
62.000000 -70.000000 97.772736 103 103 103
63.000000 -70.000000 97.418480 103 103 103
64.000000 -70.000000 97.772736 104 104 104
65.000000 -70.000000 98.126984 104 104 104
66.000000 -70.000000 98.126984 104 104 104
67.000000 -70.000000 99.543976 105 105 105
68.000000 -70.000000 99.898224 105 105 105
69.000000 -70.000000 99.898224 105 105 105
70.000000 -70.000000 100.252472 104 104 104
71.000000 -70.000000 101.669472 105 105 105
72.000000 -70.000000 102.023720 105 105 105
73.000000 -70.000000 102.023720 104 104 104
74.000000 -70.000000 101.669472 102 102 102
75.000000 -70.000000 100.960976 102 102 102
76.000000 -70.000000 98.481232 101 101 101
77.000000 -70.000000 97.772736 100 100 100
78.000000 -70.000000 97.418480 97 97 97
79.000000 -70.000000 97.772736 94 94 94
80.000000 -70.000000 98.126984 89 89 89
81.000000 -70.000000 98.835480 72 72 72
82.000000 -70.000000 99.189728 51 51 51
83.000000 -70.000000 99.543976 44 44 44
84.000000 -70.000000 98.835480 46 46 46
85.000000 -70.000000 98.481232 49 49 49
86.000000 -70.000000 97.772736 47 47 47
87.000000 -70.000000 96.355736 44 44 44
88.000000 -70.000000 96.355736 45 45 45
89.000000 -70.000000 96.001488 50 50 50
90.000000 -70.000000 96.001488 75 75 75
91.000000 -70.000000 95.647240 112 112 112
92.000000 -70.000000 95.647240 142 142 142
93.000000 -70.000000 96.355736 174 174 174
94.000000 -70.000000 96.355736 204 204 204
95.000000 -70.000000 96.355736 217 217 217
96.000000 -70.000000 96.709984 220 220 220
97.000000 -70.000000 96.709984 225 225 225
98.000000 -70.000000 96.355736 222 222 222
99.000000 -70.000000 96.001488 178 178 178
100.000000 -70.000000 95.292992 191 191 191
101.000000 -70.000000 85.019768 224 224 224
102.000000 -70.000000 83.248520 224 224 224
103.000000 -70.000000 82.540024 222 222 222
104.000000 -70.000000 81.477280 221 221 221
105.000000 -70.000000 81.123032 219 219 219
106.000000 -70.000000 82.185776 216 216 216
107.000000 -70.000000 82.185776 214 214 214
108.000000 -70.000000 81.831528 210 210 210
109.000000 -70.000000 81.123032 205 205 205
110.000000 -70.000000 80.768776 196 196 196
111.000000 -70.000000 80.768776 188 188 188
112.000000 -70.000000 81.123032 182 182 182
113.000000 -70.000000 81.123032 177 177 177
114.000000 -70.000000 79.351784 172 172 172
115.000000 -70.000000 71.558304 170 170 170
116.000000 -70.000000 71.558304 168 168 168
117.000000 -70.000000 74.038048 166 166 166
118.000000 -70.000000 76.163544 162 162 162
119.000000 -70.000000 77.580536 160 160 160
120.000000 -70.000000 78.643288 157 157 157
121.000000 -70.000000 79.351784 153 153 153
122.000000 -70.000000 80.414528 152 152 152
123.000000 -70.000000 81.123032 150 150 150
124.000000 -70.000000 81.123032 146 146 146
125.000000 -70.000000 81.123032 146 146 146
126.000000 -70.000000 81.123032 145 145 145
127.000000 -70.000000 81.831528 144 144 144
128.000000 -70.000000 82.540024 144 144 144
129.000000 -70.000000 83.248520 141 141 141
130.000000 -70.000000 83.602768 138 138 138
131.000000 -70.000000 83.957024 136 136 136
132.000000 -70.000000 84.311272 135 135 135
133.000000 -70.000000 85.019768 137 137 137
134.000000 -70.000000 85.019768 138 138 138
135.000000 -70.000000 85.019768 136 136 136
136.000000 -70.000000 85.019768 128 128 128
137.000000 -70.000000 85.019768 124 124 124
138.000000 -70.000000 85.019768 131 131 131
139.000000 -70.000000 85.019768 134 134 134
140.000000 -70.000000 85.019768 134 134 134
141.000000 -70.000000 85.019768 133 133 133
142.000000 -70.000000 85.019768 135 135 135
143.000000 -70.000000 85.019768 131 131 131
144.000000 -70.000000 86.082512 125 125 125
145.000000 -70.000000 86.082512 119 119 119
146.000000 -70.000000 86.436760 116 116 116
147.000000 -70.000000 87.145264 115 115 115
148.000000 -70.000000 87.499512 112 112 112
149.000000 -70.000000 88.562256 110 110 110
150.000000 -70.000000 89.270752 111 111 111
151.000000 -70.000000 89.625008 111 111 111
152.000000 -70.000000 89.625008 114 114 114
153.000000 -70.000000 89.979256 117 117 117
154.000000 -70.000000 89.979256 118 118 118
155.000000 -70.000000 89.625008 118 118 118
156.000000 -70.000000 89.625008 118 118 118
157.000000 -70.000000 89.625008 118 118 118
158.000000 -70.000000 88.562256 119 119 119
31.000000 -71.000000 102.023720 26 26 26
32.000000 -71.000000 102.023720 29 29 29
33.000000 -71.000000 101.315224 36 36 36
34.000000 -71.000000 100.960976 46 46 46
35.000000 -71.000000 100.252472 55 55 55
36.000000 -71.000000 100.252472 62 62 62
37.000000 -71.000000 99.898224 67 67 67
38.000000 -71.000000 99.898224 72 72 72
39.000000 -71.000000 100.606728 77 77 77
40.000000 -71.000000 101.315224 81 81 81
41.000000 -71.000000 101.669472 84 84 84
42.000000 -71.000000 101.669472 88 88 88
43.000000 -71.000000 101.669472 90 90 90
44.000000 -71.000000 101.669472 91 91 91
45.000000 -71.000000 101.669472 93 93 93
46.000000 -71.000000 102.023720 94 94 94
47.000000 -71.000000 102.023720 95 95 95
48.000000 -71.000000 102.023720 96 96 96
49.000000 -71.000000 101.315224 96 96 96
50.000000 -71.000000 100.606728 97 97 97
51.000000 -71.000000 99.898224 98 98 98
52.000000 -71.000000 99.189728 99 99 99
53.000000 -71.000000 98.835480 99 99 99
54.000000 -71.000000 98.481232 99 99 99
55.000000 -71.000000 98.481232 99 99 99
56.000000 -71.000000 98.835480 100 100 100
57.000000 -71.000000 98.835480 100 100 100
58.000000 -71.000000 98.835480 101 101 101
59.000000 -71.000000 99.898224 101 101 101
60.000000 -71.000000 99.898224 101 101 101
61.000000 -71.000000 98.835480 102 102 102
62.000000 -71.000000 98.126984 102 102 102
63.000000 -71.000000 98.126984 102 102 102
64.000000 -71.000000 98.126984 104 104 104
65.000000 -71.000000 98.481232 104 104 104
66.000000 -71.000000 98.481232 104 104 104
67.000000 -71.000000 99.543976 104 104 104
68.000000 -71.000000 99.543976 104 104 104
69.000000 -71.000000 99.898224 104 104 104
70.000000 -71.000000 100.252472 104 104 104
71.000000 -71.000000 101.315224 104 104 104
72.000000 -71.000000 101.669472 104 104 104
73.000000 -71.000000 101.669472 103 103 103
74.000000 -71.000000 101.315224 101 101 101
75.000000 -71.000000 100.960976 100 100 100
76.000000 -71.000000 98.481232 100 100 100
77.000000 -71.000000 97.772736 97 97 97
78.000000 -71.000000 97.418480 95 95 95
79.000000 -71.000000 97.772736 91 91 91
80.000000 -71.000000 98.126984 88 88 88
81.000000 -71.000000 99.189728 78 78 78
82.000000 -71.000000 99.898224 62 62 62
83.000000 -71.000000 100.252472 54 54 54
84.000000 -71.000000 100.252472 53 53 53
85.000000 -71.000000 98.835480 50 50 50
86.000000 -71.000000 97.418480 44 44 44
87.000000 -71.000000 96.001488 43 43 43
88.000000 -71.000000 95.647240 45 45 45
89.000000 -71.000000 95.647240 64 64 64
90.000000 -71.000000 95.647240 103 103 103
91.000000 -71.000000 95.647240 107 107 107
92.000000 -71.000000 96.001488 104 104 104
93.000000 -71.000000 96.355736 116 116 116
94.000000 -71.000000 96.355736 146 146 146
95.000000 -71.000000 96.355736 188 188 188
96.000000 -71.000000 96.355736 211 211 211
97.000000 -71.000000 96.355736 218 218 218
98.000000 -71.000000 96.355736 216 216 216
99.000000 -71.000000 95.647240 174 174 174
100.000000 -71.000000 94.938744 187 187 187
101.000000 -71.000000 86.082512 220 220 220
102.000000 -71.000000 83.957024 220 220 220
103.000000 -71.000000 81.477280 220 220 220
104.000000 -71.000000 79.706032 220 220 220
105.000000 -71.000000 79.351784 218 218 218
106.000000 -71.000000 80.414528 215 215 215
107.000000 -71.000000 81.123032 213 213 213
108.000000 -71.000000 81.123032 210 210 210
109.000000 -71.000000 80.768776 204 204 204
110.000000 -71.000000 80.414528 196 196 196
111.000000 -71.000000 80.414528 188 188 188
112.000000 -71.000000 79.351784 182 182 182
113.000000 -71.000000 79.351784 177 177 177
114.000000 -71.000000 69.787056 172 172 172
115.000000 -71.000000 69.432808 170 170 170
116.000000 -71.000000 69.078560 168 168 168
117.000000 -71.000000 69.078560 166 166 166
118.000000 -71.000000 70.849808 164 164 164
119.000000 -71.000000 74.746544 162 162 162
120.000000 -71.000000 77.226288 160 160 160
121.000000 -71.000000 78.643288 157 157 157
122.000000 -71.000000 79.351784 155 155 155
123.000000 -71.000000 80.060280 154 154 154
124.000000 -71.000000 80.768776 150 150 150
125.000000 -71.000000 80.768776 149 149 149
126.000000 -71.000000 81.123032 149 149 149
127.000000 -71.000000 81.831528 149 149 149
128.000000 -71.000000 82.540024 149 149 149
129.000000 -71.000000 83.248520 148 148 148
130.000000 -71.000000 83.602768 143 143 143
131.000000 -71.000000 83.957024 139 139 139
132.000000 -71.000000 84.311272 138 138 138
133.000000 -71.000000 85.019768 139 139 139
134.000000 -71.000000 85.019768 142 142 142
135.000000 -71.000000 85.019768 142 142 142
136.000000 -71.000000 85.019768 135 135 135
137.000000 -71.000000 85.374016 126 126 126
138.000000 -71.000000 85.728264 129 129 129
139.000000 -71.000000 85.728264 130 130 130
140.000000 -71.000000 85.728264 131 131 131
141.000000 -71.000000 85.019768 132 132 132
142.000000 -71.000000 85.019768 135 135 135
143.000000 -71.000000 85.019768 134 134 134
144.000000 -71.000000 86.082512 126 126 126
145.000000 -71.000000 86.436760 121 121 121
146.000000 -71.000000 86.791016 116 116 116
147.000000 -71.000000 87.145264 114 114 114
148.000000 -71.000000 88.562256 113 113 113
149.000000 -71.000000 89.270752 110 110 110
150.000000 -71.000000 89.625008 109 109 109
151.000000 -71.000000 90.333504 109 109 109
152.000000 -71.000000 90.687752 110 110 110
153.000000 -71.000000 90.687752 113 113 113
154.000000 -71.000000 90.687752 116 116 116
155.000000 -71.000000 90.687752 117 117 117
156.000000 -71.000000 90.687752 117 117 117
157.000000 -71.000000 90.687752 117 117 117
158.000000 -71.000000 89.625008 116 116 116
31.000000 -72.000000 102.023720 24 24 24
32.000000 -72.000000 102.023720 27 27 27
33.000000 -72.000000 101.669472 32 32 32
34.000000 -72.000000 101.315224 42 42 42
35.000000 -72.000000 100.606728 51 51 51
36.000000 -72.000000 100.252472 59 59 59
37.000000 -72.000000 100.252472 64 64 64
38.000000 -72.000000 100.606728 69 69 69
39.000000 -72.000000 101.315224 75 75 75
40.000000 -72.000000 101.669472 78 78 78
41.000000 -72.000000 101.669472 81 81 81
42.000000 -72.000000 101.669472 84 84 84
43.000000 -72.000000 101.669472 86 86 86
44.000000 -72.000000 102.023720 88 88 88
45.000000 -72.000000 102.023720 89 89 89
46.000000 -72.000000 102.023720 91 91 91
47.000000 -72.000000 102.023720 93 93 93
48.000000 -72.000000 101.669472 94 94 94
49.000000 -72.000000 101.315224 94 94 94
50.000000 -72.000000 101.315224 95 95 95
51.000000 -72.000000 100.606728 96 96 96
52.000000 -72.000000 100.252472 97 97 97
53.000000 -72.000000 99.898224 97 97 97
54.000000 -72.000000 98.126984 98 98 98
55.000000 -72.000000 98.126984 98 98 98
56.000000 -72.000000 98.126984 99 99 99
57.000000 -72.000000 98.126984 99 99 99
58.000000 -72.000000 98.126984 100 100 100
59.000000 -72.000000 99.189728 100 100 100
60.000000 -72.000000 99.898224 100 100 100
61.000000 -72.000000 100.252472 100 100 100
62.000000 -72.000000 99.543976 100 100 100
63.000000 -72.000000 99.543976 101 101 101
64.000000 -72.000000 99.543976 102 102 102
65.000000 -72.000000 98.835480 103 103 103
66.000000 -72.000000 99.189728 103 103 103
67.000000 -72.000000 99.543976 103 103 103
68.000000 -72.000000 99.543976 103 103 103
69.000000 -72.000000 99.898224 103 103 103
70.000000 -72.000000 100.252472 103 103 103
71.000000 -72.000000 101.315224 103 103 103
72.000000 -72.000000 101.315224 101 101 101
73.000000 -72.000000 101.315224 95 95 95
74.000000 -72.000000 100.960976 91 91 91
75.000000 -72.000000 100.606728 92 92 92
76.000000 -72.000000 99.898224 95 95 95
77.000000 -72.000000 98.481232 94 94 94
78.000000 -72.000000 97.772736 92 92 92
79.000000 -72.000000 97.772736 89 89 89
80.000000 -72.000000 98.126984 85 85 85
81.000000 -72.000000 98.835480 80 80 80
82.000000 -72.000000 100.252472 70 70 70
83.000000 -72.000000 100.252472 62 62 62
84.000000 -72.000000 100.252472 54 54 54
85.000000 -72.000000 99.189728 47 47 47
86.000000 -72.000000 96.001488 42 42 42
87.000000 -72.000000 94.584488 41 41 41
88.000000 -72.000000 94.584488 48 48 48
89.000000 -72.000000 94.938744 94 94 94
90.000000 -72.000000 95.647240 163 163 163
91.000000 -72.000000 95.647240 168 168 168
92.000000 -72.000000 96.001488 151 151 151
93.000000 -72.000000 96.001488 138 138 138
94.000000 -72.000000 96.355736 135 135 135
95.000000 -72.000000 96.355736 140 140 140
96.000000 -72.000000 96.355736 176 176 176
97.000000 -72.000000 96.355736 209 209 209
98.000000 -72.000000 95.647240 212 212 212
99.000000 -72.000000 95.292992 172 172 172
100.000000 -72.000000 94.938744 184 184 184
101.000000 -72.000000 86.082512 216 216 216
102.000000 -72.000000 81.477280 218 218 218
103.000000 -72.000000 78.997536 216 216 216
104.000000 -72.000000 78.997536 215 215 215
105.000000 -72.000000 78.289032 215 215 215
106.000000 -72.000000 79.351784 212 212 212
107.000000 -72.000000 79.706032 209 209 209
108.000000 -72.000000 80.768776 205 205 205
109.000000 -72.000000 80.414528 199 199 199
110.000000 -72.000000 79.351784 193 193 193
111.000000 -72.000000 79.351784 186 186 186
112.000000 -72.000000 75.809296 179 179 179
113.000000 -72.000000 74.746544 177 177 177
114.000000 -72.000000 71.558304 173 173 173
115.000000 -72.000000 69.787056 169 169 169
116.000000 -72.000000 69.787056 168 168 168
117.000000 -72.000000 69.078560 167 167 167
118.000000 -72.000000 70.849808 164 164 164
119.000000 -72.000000 73.329552 162 162 162
120.000000 -72.000000 74.746544 160 160 160
121.000000 -72.000000 77.226288 158 158 158
122.000000 -72.000000 78.643288 155 155 155
123.000000 -72.000000 79.351784 154 154 154
124.000000 -72.000000 79.706032 153 153 153
125.000000 -72.000000 80.414528 151 151 151
126.000000 -72.000000 80.768776 151 151 151
127.000000 -72.000000 81.123032 152 152 152
128.000000 -72.000000 81.831528 153 153 153
129.000000 -72.000000 82.540024 153 153 153
130.000000 -72.000000 83.248520 149 149 149
131.000000 -72.000000 83.602768 143 143 143
132.000000 -72.000000 84.311272 141 141 141
133.000000 -72.000000 84.311272 140 140 140
134.000000 -72.000000 85.019768 141 141 141
135.000000 -72.000000 85.019768 141 141 141
136.000000 -72.000000 85.019768 139 139 139
137.000000 -72.000000 85.728264 131 131 131
138.000000 -72.000000 86.082512 126 126 126
139.000000 -72.000000 86.436760 125 125 125
140.000000 -72.000000 85.728264 127 127 127
141.000000 -72.000000 85.374016 129 129 129
142.000000 -72.000000 85.019768 130 130 130
143.000000 -72.000000 85.019768 133 133 133
144.000000 -72.000000 85.374016 127 127 127
145.000000 -72.000000 86.082512 121 121 121
146.000000 -72.000000 86.791016 117 117 117
147.000000 -72.000000 87.145264 113 113 113
148.000000 -72.000000 88.562256 112 112 112
149.000000 -72.000000 89.625008 110 110 110
150.000000 -72.000000 89.979256 109 109 109
151.000000 -72.000000 90.687752 108 108 108
152.000000 -72.000000 90.687752 107 107 107
153.000000 -72.000000 90.687752 108 108 108
154.000000 -72.000000 90.687752 111 111 111
155.000000 -72.000000 90.687752 115 115 115
156.000000 -72.000000 91.042000 116 116 116
157.000000 -72.000000 91.042000 116 116 116
158.000000 -72.000000 90.687752 114 114 114
31.000000 -73.000000 102.023720 22 22 22
32.000000 -73.000000 102.377968 24 24 24
33.000000 -73.000000 102.023720 29 29 29
34.000000 -73.000000 101.669472 36 36 36
35.000000 -73.000000 101.315224 46 46 46
36.000000 -73.000000 101.315224 55 55 55
37.000000 -73.000000 101.669472 61 61 61
38.000000 -73.000000 102.023720 67 67 67
39.000000 -73.000000 102.023720 72 72 72
40.000000 -73.000000 102.023720 75 75 75
41.000000 -73.000000 102.023720 77 77 77
42.000000 -73.000000 102.023720 81 81 81
43.000000 -73.000000 102.023720 83 83 83
44.000000 -73.000000 102.377968 84 84 84
45.000000 -73.000000 102.732216 87 87 87
46.000000 -73.000000 102.023720 89 89 89
47.000000 -73.000000 102.023720 90 90 90
48.000000 -73.000000 102.023720 91 91 91
49.000000 -73.000000 101.669472 92 92 92
50.000000 -73.000000 101.315224 93 93 93
51.000000 -73.000000 101.315224 94 94 94
52.000000 -73.000000 101.315224 95 95 95
53.000000 -73.000000 100.606728 95 95 95
54.000000 -73.000000 99.189728 97 97 97
55.000000 -73.000000 98.835480 97 97 97
56.000000 -73.000000 98.126984 97 97 97
57.000000 -73.000000 98.126984 97 97 97
58.000000 -73.000000 98.126984 97 97 97
59.000000 -73.000000 98.835480 98 98 98
60.000000 -73.000000 100.252472 98 98 98
61.000000 -73.000000 100.960976 98 98 98
62.000000 -73.000000 100.960976 98 98 98
63.000000 -73.000000 100.960976 99 99 99
64.000000 -73.000000 100.606728 100 100 100
65.000000 -73.000000 99.898224 101 101 101
66.000000 -73.000000 99.898224 102 102 102
67.000000 -73.000000 99.898224 102 102 102
68.000000 -73.000000 99.543976 102 102 102
69.000000 -73.000000 99.898224 102 102 102
70.000000 -73.000000 99.898224 101 101 101
71.000000 -73.000000 100.606728 99 99 99
72.000000 -73.000000 100.960976 88 88 88
73.000000 -73.000000 100.606728 72 72 72
74.000000 -73.000000 100.606728 63 63 63
75.000000 -73.000000 100.606728 65 65 65
76.000000 -73.000000 100.252472 80 80 80
77.000000 -73.000000 99.898224 91 91 91
78.000000 -73.000000 98.835480 90 90 90
79.000000 -73.000000 98.481232 87 87 87
80.000000 -73.000000 98.481232 82 82 82
81.000000 -73.000000 98.835480 77 77 77
82.000000 -73.000000 99.189728 70 70 70
83.000000 -73.000000 99.898224 62 62 62
84.000000 -73.000000 99.189728 52 52 52
85.000000 -73.000000 96.355736 43 43 43
86.000000 -73.000000 93.167496 38 38 38
87.000000 -73.000000 91.750496 39 39 39
88.000000 -73.000000 91.750496 59 59 59
89.000000 -73.000000 92.813248 127 127 127
90.000000 -73.000000 94.584488 183 183 183
91.000000 -73.000000 94.584488 196 196 196
92.000000 -73.000000 94.584488 198 198 198
93.000000 -73.000000 94.584488 197 197 197
94.000000 -73.000000 76.163544 192 192 192
95.000000 -73.000000 76.163544 161 161 161
96.000000 -73.000000 77.934784 141 141 141
97.000000 -73.000000 95.292992 183 183 183
98.000000 -73.000000 95.292992 204 204 204
99.000000 -73.000000 94.938744 166 166 166
100.000000 -73.000000 93.875992 179 179 179
101.000000 -73.000000 79.351784 211 211 211
102.000000 -73.000000 78.997536 213 213 213
103.000000 -73.000000 78.997536 213 213 213
104.000000 -73.000000 78.289032 212 212 212
105.000000 -73.000000 77.226288 211 211 211
106.000000 -73.000000 78.289032 209 209 209
107.000000 -73.000000 78.643288 206 206 206
108.000000 -73.000000 79.351784 201 201 201
109.000000 -73.000000 79.351784 193 193 193
110.000000 -73.000000 78.997536 187 187 187
111.000000 -73.000000 77.580536 183 183 183
112.000000 -73.000000 75.809296 178 178 178
113.000000 -73.000000 75.809296 175 175 175
114.000000 -73.000000 74.038048 172 172 172
115.000000 -73.000000 73.683800 169 169 169
116.000000 -73.000000 73.683800 167 167 167
117.000000 -73.000000 73.683800 167 167 167
118.000000 -73.000000 73.329552 165 165 165
119.000000 -73.000000 73.683800 162 162 162
120.000000 -73.000000 74.392296 161 161 161
121.000000 -73.000000 77.226288 160 160 160
122.000000 -73.000000 77.580536 157 157 157
123.000000 -73.000000 77.580536 154 154 154
124.000000 -73.000000 78.643288 153 153 153
125.000000 -73.000000 79.351784 152 152 152
126.000000 -73.000000 80.414528 152 152 152
127.000000 -73.000000 80.768776 154 154 154
128.000000 -73.000000 81.477280 154 154 154
129.000000 -73.000000 81.831528 153 153 153
130.000000 -73.000000 83.248520 151 151 151
131.000000 -73.000000 83.602768 147 147 147
132.000000 -73.000000 83.957024 143 143 143
133.000000 -73.000000 84.311272 142 142 142
134.000000 -73.000000 84.665520 140 140 140
135.000000 -73.000000 85.019768 138 138 138
136.000000 -73.000000 85.019768 135 135 135
137.000000 -73.000000 85.374016 130 130 130
138.000000 -73.000000 86.436760 125 125 125
139.000000 -73.000000 86.436760 123 123 123
140.000000 -73.000000 85.728264 126 126 126
141.000000 -73.000000 85.019768 129 129 129
142.000000 -73.000000 84.311272 128 128 128
143.000000 -73.000000 84.665520 130 130 130
144.000000 -73.000000 85.019768 128 128 128
145.000000 -73.000000 85.374016 122 122 122
146.000000 -73.000000 86.082512 119 119 119
147.000000 -73.000000 86.791016 114 114 114
148.000000 -73.000000 87.499512 110 110 110
149.000000 -73.000000 88.916504 110 110 110
150.000000 -73.000000 89.625008 109 109 109
151.000000 -73.000000 90.333504 106 106 106
152.000000 -73.000000 90.687752 105 105 105
153.000000 -73.000000 90.687752 105 105 105
154.000000 -73.000000 90.687752 106 106 106
155.000000 -73.000000 90.687752 110 110 110
156.000000 -73.000000 91.042000 114 114 114
157.000000 -73.000000 91.042000 115 115 115
158.000000 -73.000000 90.687752 112 112 112
31.000000 -74.000000 102.732216 24 24 24
32.000000 -74.000000 103.440720 23 23 23
33.000000 -74.000000 102.732216 26 26 26
34.000000 -74.000000 102.023720 31 31 31
35.000000 -74.000000 102.023720 40 40 40
36.000000 -74.000000 102.023720 49 49 49
37.000000 -74.000000 102.377968 56 56 56
38.000000 -74.000000 102.377968 62 62 62
39.000000 -74.000000 102.023720 68 68 68
40.000000 -74.000000 102.023720 72 72 72
41.000000 -74.000000 102.377968 74 74 74
42.000000 -74.000000 102.732216 77 77 77
43.000000 -74.000000 103.086472 80 80 80
44.000000 -74.000000 103.086472 82 82 82
45.000000 -74.000000 102.732216 84 84 84
46.000000 -74.000000 102.732216 86 86 86
47.000000 -74.000000 102.023720 87 87 87
48.000000 -74.000000 102.023720 88 88 88
49.000000 -74.000000 102.023720 89 89 89
50.000000 -74.000000 102.023720 90 90 90
51.000000 -74.000000 102.023720 91 91 91
52.000000 -74.000000 101.669472 92 92 92
53.000000 -74.000000 101.315224 94 94 94
54.000000 -74.000000 100.252472 94 94 94
55.000000 -74.000000 99.543976 95 95 95
56.000000 -74.000000 98.835480 95 95 95
57.000000 -74.000000 98.126984 95 95 95
58.000000 -74.000000 98.126984 96 96 96
59.000000 -74.000000 98.835480 96 96 96
60.000000 -74.000000 100.960976 96 96 96
61.000000 -74.000000 101.315224 97 97 97
62.000000 -74.000000 101.315224 97 97 97
63.000000 -74.000000 101.315224 97 97 97
64.000000 -74.000000 101.315224 99 99 99
65.000000 -74.000000 100.606728 100 100 100
66.000000 -74.000000 99.898224 101 101 101
67.000000 -74.000000 99.898224 100 100 100
68.000000 -74.000000 99.898224 100 100 100
69.000000 -74.000000 99.898224 100 100 100
70.000000 -74.000000 99.898224 100 100 100
71.000000 -74.000000 100.252472 94 94 94
72.000000 -74.000000 100.252472 70 70 70
73.000000 -74.000000 100.252472 46 46 46
74.000000 -74.000000 100.252472 39 39 39
75.000000 -74.000000 100.252472 41 41 41
76.000000 -74.000000 100.252472 60 60 60
77.000000 -74.000000 100.252472 83 83 83
78.000000 -74.000000 99.543976 88 88 88
79.000000 -74.000000 98.835480 85 85 85
80.000000 -74.000000 98.835480 80 80 80
81.000000 -74.000000 98.481232 75 75 75
82.000000 -74.000000 98.481232 66 66 66
83.000000 -74.000000 97.772736 56 56 56
84.000000 -74.000000 96.355736 46 46 46
85.000000 -74.000000 93.167496 39 39 39
86.000000 -74.000000 91.750496 36 36 36
87.000000 -74.000000 91.750496 41 41 41
88.000000 -74.000000 91.750496 84 84 84
89.000000 -74.000000 92.459000 158 158 158
90.000000 -74.000000 92.459000 188 188 188
91.000000 -74.000000 92.459000 195 195 195
92.000000 -74.000000 90.687752 201 201 201
93.000000 -74.000000 76.163544 205 205 205
94.000000 -74.000000 76.163544 208 208 208
95.000000 -74.000000 76.163544 198 198 198
96.000000 -74.000000 77.934784 157 157 157
97.000000 -74.000000 80.414528 156 156 156
98.000000 -74.000000 93.875992 192 192 192
99.000000 -74.000000 93.875992 162 162 162
100.000000 -74.000000 80.768776 176 176 176
101.000000 -74.000000 79.351784 207 207 207
102.000000 -74.000000 78.997536 212 212 212
103.000000 -74.000000 78.997536 214 214 214
104.000000 -74.000000 78.643288 212 212 212
105.000000 -74.000000 77.580536 211 211 211
106.000000 -74.000000 77.934784 210 210 210
107.000000 -74.000000 77.934784 206 206 206
108.000000 -74.000000 78.289032 200 200 200
109.000000 -74.000000 78.643288 192 192 192
110.000000 -74.000000 78.289032 185 185 185
111.000000 -74.000000 78.289032 180 180 180
112.000000 -74.000000 77.934784 176 176 176
113.000000 -74.000000 77.934784 172 172 172
114.000000 -74.000000 75.809296 170 170 170
115.000000 -74.000000 74.746544 168 168 168
116.000000 -74.000000 74.038048 166 166 166
117.000000 -74.000000 73.683800 167 167 167
118.000000 -74.000000 73.683800 166 166 166
119.000000 -74.000000 74.392296 162 162 162
120.000000 -74.000000 76.517792 160 160 160
121.000000 -74.000000 77.580536 160 160 160
122.000000 -74.000000 77.580536 158 158 158
123.000000 -74.000000 77.580536 154 154 154
124.000000 -74.000000 77.580536 153 153 153
125.000000 -74.000000 78.997536 153 153 153
126.000000 -74.000000 79.351784 153 153 153
127.000000 -74.000000 80.768776 154 154 154
128.000000 -74.000000 81.477280 154 154 154
129.000000 -74.000000 81.831528 153 153 153
130.000000 -74.000000 83.248520 151 151 151
131.000000 -74.000000 83.602768 149 149 149
132.000000 -74.000000 83.957024 145 145 145
133.000000 -74.000000 84.311272 145 145 145
134.000000 -74.000000 84.311272 144 144 144
135.000000 -74.000000 84.311272 140 140 140
136.000000 -74.000000 84.665520 135 135 135
137.000000 -74.000000 85.019768 132 132 132
138.000000 -74.000000 85.019768 128 128 128
139.000000 -74.000000 85.728264 127 127 127
140.000000 -74.000000 84.665520 130 130 130
141.000000 -74.000000 83.957024 132 132 132
142.000000 -74.000000 83.957024 129 129 129
143.000000 -74.000000 83.957024 129 129 129
144.000000 -74.000000 83.957024 129 129 129
145.000000 -74.000000 85.019768 124 124 124
146.000000 -74.000000 85.374016 121 121 121
147.000000 -74.000000 85.728264 117 117 117
148.000000 -74.000000 86.791016 113 113 113
149.000000 -74.000000 87.499512 111 111 111
150.000000 -74.000000 88.916504 110 110 110
151.000000 -74.000000 89.625008 108 108 108
152.000000 -74.000000 90.333504 105 105 105
153.000000 -74.000000 90.687752 106 106 106
154.000000 -74.000000 90.687752 106 106 106
155.000000 -74.000000 90.687752 108 108 108
156.000000 -74.000000 90.687752 111 111 111
157.000000 -74.000000 90.687752 112 112 112
158.000000 -74.000000 89.979256 112 112 112
31.000000 -75.000000 103.794968 28 28 28
32.000000 -75.000000 111.588448 22 22 22
33.000000 -75.000000 104.503464 24 24 24
34.000000 -75.000000 103.440720 28 28 28
35.000000 -75.000000 103.086472 33 33 33
36.000000 -75.000000 103.086472 41 41 41
37.000000 -75.000000 102.732216 50 50 50
38.000000 -75.000000 102.732216 57 57 57
39.000000 -75.000000 102.732216 62 62 62
40.000000 -75.000000 102.732216 67 67 67
41.000000 -75.000000 103.086472 71 71 71
42.000000 -75.000000 103.440720 74 74 74
43.000000 -75.000000 103.440720 76 76 76
44.000000 -75.000000 103.440720 78 78 78
45.000000 -75.000000 103.086472 80 80 80
46.000000 -75.000000 102.732216 82 82 82
47.000000 -75.000000 102.377968 84 84 84
48.000000 -75.000000 102.023720 85 85 85
49.000000 -75.000000 102.023720 86 86 86
50.000000 -75.000000 102.023720 87 87 87
51.000000 -75.000000 102.023720 88 88 88
52.000000 -75.000000 102.023720 89 89 89
53.000000 -75.000000 101.669472 90 90 90
54.000000 -75.000000 100.252472 91 91 91
55.000000 -75.000000 99.898224 92 92 92
56.000000 -75.000000 98.835480 93 93 93
57.000000 -75.000000 98.126984 94 94 94
58.000000 -75.000000 98.126984 94 94 94
59.000000 -75.000000 98.835480 94 94 94
60.000000 -75.000000 100.960976 94 94 94
61.000000 -75.000000 101.315224 95 95 95
62.000000 -75.000000 101.315224 96 96 96
63.000000 -75.000000 101.315224 95 95 95
64.000000 -75.000000 101.315224 96 96 96
65.000000 -75.000000 100.606728 97 97 97
66.000000 -75.000000 99.898224 98 98 98
67.000000 -75.000000 99.898224 98 98 98
68.000000 -75.000000 99.543976 98 98 98
69.000000 -75.000000 98.835480 99 99 99
70.000000 -75.000000 99.189728 98 98 98
71.000000 -75.000000 99.898224 89 89 89
72.000000 -75.000000 99.898224 60 60 60
73.000000 -75.000000 99.898224 35 35 35
74.000000 -75.000000 100.252472 30 30 30
75.000000 -75.000000 100.252472 34 34 34
76.000000 -75.000000 100.252472 49 49 49
77.000000 -75.000000 99.898224 74 74 74
78.000000 -75.000000 99.898224 83 83 83
79.000000 -75.000000 99.543976 81 81 81
80.000000 -75.000000 98.835480 76 76 76
81.000000 -75.000000 98.481232 69 69 69
82.000000 -75.000000 97.772736 60 60 60
83.000000 -75.000000 96.001488 49 49 49
84.000000 -75.000000 93.521744 41 41 41
85.000000 -75.000000 92.459000 36 36 36
86.000000 -75.000000 91.750496 36 36 36
87.000000 -75.000000 91.750496 52 52 52
88.000000 -75.000000 91.750496 115 115 115
89.000000 -75.000000 92.459000 169 169 169
90.000000 -75.000000 92.459000 186 186 186
91.000000 -75.000000 90.687752 192 192 192
92.000000 -75.000000 78.997536 198 198 198
93.000000 -75.000000 76.163544 203 203 203
94.000000 -75.000000 77.580536 206 206 206
95.000000 -75.000000 78.997536 206 206 206
96.000000 -75.000000 79.351784 187 187 187
97.000000 -75.000000 80.414528 150 150 150
98.000000 -75.000000 91.750496 173 173 173
99.000000 -75.000000 91.750496 160 160 160
100.000000 -75.000000 81.477280 176 176 176
101.000000 -75.000000 79.706032 205 205 205
102.000000 -75.000000 79.351784 211 211 211
103.000000 -75.000000 79.351784 214 214 214
104.000000 -75.000000 78.997536 212 212 212
105.000000 -75.000000 78.643288 212 212 212
106.000000 -75.000000 78.289032 212 212 212
107.000000 -75.000000 77.934784 209 209 209
108.000000 -75.000000 77.934784 202 202 202
109.000000 -75.000000 78.289032 196 196 196
110.000000 -75.000000 78.289032 188 188 188
111.000000 -75.000000 78.997536 177 177 177
112.000000 -75.000000 78.997536 170 170 170
113.000000 -75.000000 79.351784 167 167 167
114.000000 -75.000000 77.934784 165 165 165
115.000000 -75.000000 75.809296 164 164 164
116.000000 -75.000000 74.746544 163 163 163
117.000000 -75.000000 74.746544 163 163 163
118.000000 -75.000000 74.746544 164 164 164
119.000000 -75.000000 76.872040 161 161 161
120.000000 -75.000000 77.580536 158 158 158
121.000000 -75.000000 77.934784 157 157 157
122.000000 -75.000000 77.934784 156 156 156
123.000000 -75.000000 77.580536 153 153 153
124.000000 -75.000000 78.643288 152 152 152
125.000000 -75.000000 78.997536 154 154 154
126.000000 -75.000000 79.351784 154 154 154
127.000000 -75.000000 80.768776 154 154 154
128.000000 -75.000000 81.477280 155 155 155
129.000000 -75.000000 82.185776 154 154 154
130.000000 -75.000000 83.248520 152 152 152
131.000000 -75.000000 83.602768 152 152 152
132.000000 -75.000000 83.957024 150 150 150
133.000000 -75.000000 84.311272 147 147 147
134.000000 -75.000000 84.311272 147 147 147
135.000000 -75.000000 84.311272 145 145 145
136.000000 -75.000000 83.957024 139 139 139
137.000000 -75.000000 84.665520 136 136 136
138.000000 -75.000000 84.665520 135 135 135
139.000000 -75.000000 84.665520 133 133 133
140.000000 -75.000000 83.602768 134 134 134
141.000000 -75.000000 82.894272 133 133 133
142.000000 -75.000000 83.602768 129 129 129
143.000000 -75.000000 83.602768 126 126 126
144.000000 -75.000000 83.602768 126 126 126
145.000000 -75.000000 83.602768 125 125 125
146.000000 -75.000000 84.665520 121 121 121
147.000000 -75.000000 85.019768 119 119 119
148.000000 -75.000000 85.374016 116 116 116
149.000000 -75.000000 86.436760 112 112 112
150.000000 -75.000000 86.791016 110 110 110
151.000000 -75.000000 88.208008 109 109 109
152.000000 -75.000000 89.270752 109 109 109
153.000000 -75.000000 89.979256 108 108 108
154.000000 -75.000000 89.979256 109 109 109
155.000000 -75.000000 89.979256 109 109 109
156.000000 -75.000000 89.979256 110 110 110
157.000000 -75.000000 89.979256 112 112 112
158.000000 -75.000000 88.916504 112 112 112
31.000000 -76.000000 111.942696 40 40 40
32.000000 -76.000000 112.296944 23 23 23
33.000000 -76.000000 111.588448 23 23 23
34.000000 -76.000000 109.108704 26 26 26
35.000000 -76.000000 104.149216 29 29 29
36.000000 -76.000000 103.794968 35 35 35
37.000000 -76.000000 103.440720 44 44 44
38.000000 -76.000000 103.086472 51 51 51
39.000000 -76.000000 103.086472 57 57 57
40.000000 -76.000000 103.086472 63 63 63
41.000000 -76.000000 103.794968 67 67 67
42.000000 -76.000000 103.794968 71 71 71
43.000000 -76.000000 103.794968 73 73 73
44.000000 -76.000000 103.440720 75 75 75
45.000000 -76.000000 103.440720 76 76 76
46.000000 -76.000000 103.086472 78 78 78
47.000000 -76.000000 102.732216 80 80 80
48.000000 -76.000000 102.377968 82 82 82
49.000000 -76.000000 102.023720 83 83 83
50.000000 -76.000000 102.023720 84 84 84
51.000000 -76.000000 102.023720 84 84 84
52.000000 -76.000000 102.023720 85 85 85
53.000000 -76.000000 102.023720 86 86 86
54.000000 -76.000000 100.606728 88 88 88
55.000000 -76.000000 100.252472 89 89 89
56.000000 -76.000000 99.543976 90 90 90
57.000000 -76.000000 98.126984 91 91 91
58.000000 -76.000000 98.126984 92 92 92
59.000000 -76.000000 98.835480 92 92 92
60.000000 -76.000000 100.960976 93 93 93
61.000000 -76.000000 100.960976 93 93 93
62.000000 -76.000000 101.315224 93 93 93
63.000000 -76.000000 101.315224 93 93 93
64.000000 -76.000000 101.315224 93 93 93
65.000000 -76.000000 100.606728 94 94 94
66.000000 -76.000000 99.898224 94 94 94
67.000000 -76.000000 99.898224 95 95 95
68.000000 -76.000000 98.835480 96 96 96
69.000000 -76.000000 98.481232 96 96 96
70.000000 -76.000000 98.835480 94 94 94
71.000000 -76.000000 99.543976 86 86 86
72.000000 -76.000000 99.898224 63 63 63
73.000000 -76.000000 99.898224 38 38 38
74.000000 -76.000000 99.898224 31 31 31
75.000000 -76.000000 99.898224 35 35 35
76.000000 -76.000000 99.543976 49 49 49
77.000000 -76.000000 98.481232 71 71 71
78.000000 -76.000000 98.481232 77 77 77
79.000000 -76.000000 98.481232 75 75 75
80.000000 -76.000000 98.481232 70 70 70
81.000000 -76.000000 97.064232 62 62 62
82.000000 -76.000000 96.001488 51 51 51
83.000000 -76.000000 94.230240 42 42 42
84.000000 -76.000000 92.813248 37 37 37
85.000000 -76.000000 92.104752 33 33 33
86.000000 -76.000000 92.104752 37 37 37
87.000000 -76.000000 92.104752 64 64 64
88.000000 -76.000000 92.459000 114 114 114
89.000000 -76.000000 93.167496 148 148 148
90.000000 -76.000000 92.813248 173 173 173
91.000000 -76.000000 90.687752 188 188 188
92.000000 -76.000000 89.979256 194 194 194
93.000000 -76.000000 78.997536 201 201 201
94.000000 -76.000000 78.997536 204 204 204
95.000000 -76.000000 79.351784 206 206 206
96.000000 -76.000000 80.414528 198 198 198
97.000000 -76.000000 84.311272 162 162 162
98.000000 -76.000000 91.750496 155 155 155
99.000000 -76.000000 91.750496 155 155 155
100.000000 -76.000000 90.333504 176 176 176
101.000000 -76.000000 81.477280 205 205 205
102.000000 -76.000000 80.414528 210 210 210
103.000000 -76.000000 80.060280 213 213 213
104.000000 -76.000000 79.351784 211 211 211
