ply
		format ascii 1.0
		element vertex 3421
		property float x
		property float y
		property float z
		property uchar red
		property uchar green
		property uchar blue
		end_header
72.000000 -55.000000 230.616119 108 108 108
73.000000 -55.000000 232.033112 116 116 116
76.000000 -55.000000 233.095856 116 116 116
77.000000 -55.000000 234.512863 115 115 115
78.000000 -55.000000 234.512863 115 115 115
79.000000 -55.000000 234.867111 113 113 113
91.000000 -55.000000 56.325596 30 30 30
92.000000 -55.000000 57.388344 27 27 27
93.000000 -55.000000 59.868088 26 26 26
94.000000 -55.000000 89.270752 26 26 26
95.000000 -55.000000 92.104752 27 27 27
97.000000 -55.000000 192.711472 28 28 28
100.000000 -55.000000 90.687752 21 21 21
101.000000 -55.000000 89.979256 24 24 24
102.000000 -55.000000 89.979256 26 26 26
103.000000 -55.000000 89.979256 26 26 26
104.000000 -55.000000 89.625008 26 26 26
105.000000 -55.000000 92.813248 28 28 28
106.000000 -55.000000 94.938744 32 32 32
107.000000 -55.000000 96.001488 35 35 35
108.000000 -55.000000 96.001488 46 46 46
110.000000 -55.000000 234.867111 118 118 118
111.000000 -55.000000 235.575607 129 129 129
112.000000 -55.000000 236.284103 135 135 135
113.000000 -55.000000 237.701096 144 144 144
114.000000 -55.000000 239.118103 147 147 147
115.000000 -55.000000 239.118103 141 141 141
116.000000 -55.000000 239.118103 136 136 136
117.000000 -55.000000 238.409592 129 129 129
118.000000 -55.000000 198.733704 121 121 121
119.000000 -55.000000 200.859207 118 118 118
120.000000 -55.000000 199.796448 119 119 119
121.000000 -55.000000 200.150696 123 123 123
122.000000 -55.000000 200.504944 124 124 124
123.000000 -55.000000 201.213455 120 120 120
124.000000 -55.000000 202.984695 122 122 122
133.000000 -55.000000 213.966415 140 140 140
134.000000 -55.000000 215.737656 140 140 140
137.000000 -55.000000 6.022233 127 127 127
138.000000 -55.000000 4.605237 115 115 115
139.000000 -55.000000 4.959486 107 107 107
140.000000 -55.000000 4.959486 112 112 112
141.000000 -55.000000 4.605237 118 118 118
142.000000 -55.000000 4.959486 118 118 118
143.000000 -55.000000 4.605237 113 113 113
144.000000 -55.000000 4.605237 113 113 113
153.000000 -55.000000 74.392296 103 103 103
51.000000 -56.000000 251.516815 120 120 120
52.000000 -56.000000 252.579559 120 120 120
53.000000 -56.000000 254.705048 122 122 122
55.000000 -56.000000 35.779152 108 108 108
56.000000 -56.000000 37.196148 101 101 101
57.000000 -56.000000 39.675892 93 93 93
58.000000 -56.000000 42.155636 86 86 86
62.000000 -56.000000 0.000000 32 32 32
63.000000 -56.000000 0.000000 27 27 27
64.000000 -56.000000 0.000000 25 25 25
65.000000 -56.000000 0.000000 24 24 24
66.000000 -56.000000 0.000000 23 23 23
67.000000 -56.000000 0.000000 23 23 23
68.000000 -56.000000 3.896739 26 26 26
69.000000 -56.000000 5.667984 37 37 37
70.000000 -56.000000 228.136383 72 72 72
71.000000 -56.000000 229.907623 108 108 108
72.000000 -56.000000 230.616119 118 118 118
73.000000 -56.000000 232.033112 120 120 120
74.000000 -56.000000 233.450104 118 118 118
75.000000 -56.000000 231.324615 119 119 119
76.000000 -56.000000 232.387360 118 118 118
77.000000 -56.000000 233.804367 117 117 117
78.000000 -56.000000 234.158615 117 117 117
79.000000 -56.000000 235.221359 117 117 117
88.000000 -56.000000 63.764824 113 113 113
92.000000 -56.000000 55.617096 34 34 34
94.000000 -56.000000 88.562256 25 25 25
95.000000 -56.000000 90.687752 25 25 25
97.000000 -56.000000 191.294479 26 26 26
101.000000 -56.000000 90.687752 24 24 24
102.000000 -56.000000 90.687752 27 27 27
105.000000 -56.000000 93.875992 27 27 27
106.000000 -56.000000 95.647240 32 32 32
107.000000 -56.000000 97.418480 34 34 34
110.000000 -56.000000 233.450104 112 112 112
111.000000 -56.000000 234.867111 125 125 125
112.000000 -56.000000 236.284103 134 134 134
113.000000 -56.000000 237.701096 141 141 141
114.000000 -56.000000 239.472351 149 149 149
115.000000 -56.000000 239.472351 145 145 145
116.000000 -56.000000 239.826599 137 137 137
117.000000 -56.000000 239.826599 133 133 133
120.000000 -56.000000 202.630447 118 118 118
128.000000 -56.000000 211.486664 130 130 130
129.000000 -56.000000 213.257919 131 131 131
130.000000 -56.000000 213.612167 129 129 129
131.000000 -56.000000 213.257919 131 131 131
132.000000 -56.000000 213.612167 137 137 137
133.000000 -56.000000 214.674911 141 141 141
134.000000 -56.000000 215.737656 141 141 141
137.000000 -56.000000 7.084980 142 142 142
138.000000 -56.000000 6.022233 133 133 133
139.000000 -56.000000 5.667984 115 115 115
140.000000 -56.000000 5.667984 110 110 110
141.000000 -56.000000 4.959486 114 114 114
142.000000 -56.000000 4.959486 118 118 118
143.000000 -56.000000 4.959486 114 114 114
144.000000 -56.000000 5.313735 111 111 111
154.000000 -56.000000 224.948135 98 98 98
155.000000 -56.000000 224.239639 95 95 95
51.000000 -57.000000 252.225311 121 121 121
52.000000 -57.000000 253.642303 121 121 121
53.000000 -57.000000 256.830536 125 125 125
54.000000 -57.000000 258.247528 124 124 124
56.000000 -57.000000 37.550396 108 108 108
57.000000 -57.000000 40.030140 105 105 105
60.000000 -57.000000 77.580536 96 96 96
66.000000 -57.000000 0.000000 31 31 31
67.000000 -57.000000 0.000000 32 32 32
68.000000 -57.000000 3.896739 43 43 43
70.000000 -57.000000 227.782120 104 104 104
71.000000 -57.000000 229.907623 117 117 117
72.000000 -57.000000 231.324615 119 119 119
73.000000 -57.000000 233.095856 119 119 119
74.000000 -57.000000 234.867111 118 118 118
75.000000 -57.000000 233.804367 117 117 117
76.000000 -57.000000 233.095856 118 118 118
77.000000 -57.000000 234.512863 117 117 117
78.000000 -57.000000 234.867111 119 119 119
79.000000 -57.000000 236.284103 121 121 121
85.000000 -57.000000 61.285084 127 127 127
86.000000 -57.000000 61.993580 125 125 125
88.000000 -57.000000 64.827576 118 118 118
89.000000 -57.000000 66.244568 114 114 114
94.000000 -57.000000 88.208008 26 26 26
95.000000 -57.000000 89.270752 26 26 26
105.000000 -57.000000 94.230240 28 28 28
106.000000 -57.000000 95.647240 33 33 33
107.000000 -57.000000 97.772736 32 32 32
111.000000 -57.000000 234.512863 116 116 116
112.000000 -57.000000 236.284103 127 127 127
113.000000 -57.000000 239.118103 137 137 137
114.000000 -57.000000 240.535095 147 147 147
115.000000 -57.000000 240.180847 150 150 150
116.000000 -57.000000 240.535095 141 141 141
117.000000 -57.000000 240.889343 135 135 135
126.000000 -57.000000 211.486664 123 123 123
128.000000 -57.000000 212.549423 128 128 128
129.000000 -57.000000 214.320663 132 132 132
130.000000 -57.000000 215.029160 134 134 134
131.000000 -57.000000 214.674911 134 134 134
132.000000 -57.000000 214.674911 134 134 134
133.000000 -57.000000 215.383408 137 137 137
134.000000 -57.000000 216.091904 142 142 142
138.000000 -57.000000 7.793478 142 142 142
139.000000 -57.000000 7.439229 123 123 123
140.000000 -57.000000 6.730731 112 112 112
141.000000 -57.000000 5.667984 111 111 111
142.000000 -57.000000 4.959486 115 115 115
143.000000 -57.000000 4.605237 115 115 115
144.000000 -57.000000 5.667984 113 113 113
149.000000 -57.000000 266.395264 116 116 116
152.000000 -57.000000 196.962463 104 104 104
154.000000 -57.000000 224.948135 103 103 103
155.000000 -57.000000 224.593887 101 101 101
51.000000 -58.000000 255.059296 120 120 120
52.000000 -58.000000 256.830536 123 123 123
53.000000 -58.000000 258.247528 126 126 126
54.000000 -58.000000 259.664551 127 127 127
56.000000 -58.000000 37.904648 110 110 110
57.000000 -58.000000 40.384388 105 105 105
59.000000 -58.000000 74.746544 107 107 107
60.000000 -58.000000 77.580536 104 104 104
61.000000 -58.000000 78.997536 102 102 102
67.000000 -58.000000 0.000000 67 67 67
68.000000 -58.000000 3.542490 82 82 82
70.000000 -58.000000 227.782120 110 110 110
71.000000 -58.000000 229.907623 115 115 115
72.000000 -58.000000 231.678864 117 117 117
73.000000 -58.000000 233.804367 117 117 117
74.000000 -58.000000 235.221359 116 116 116
75.000000 -58.000000 234.867111 116 116 116
76.000000 -58.000000 234.158615 116 116 116
77.000000 -58.000000 235.575607 118 118 118
78.000000 -58.000000 235.929855 119 119 119
79.000000 -58.000000 237.701096 120 120 120
85.000000 -58.000000 63.764824 126 126 126
86.000000 -58.000000 64.827576 125 125 125
87.000000 -58.000000 65.181824 121 121 121
88.000000 -58.000000 65.536072 120 120 120
89.000000 -58.000000 66.953064 118 118 118
100.000000 -58.000000 69.787056 23 23 23
105.000000 -58.000000 93.875992 28 28 28
106.000000 -58.000000 95.292992 33 33 33
107.000000 -58.000000 97.418480 30 30 30
111.000000 -58.000000 235.221359 82 82 82
112.000000 -58.000000 236.992599 90 90 90
113.000000 -58.000000 239.826599 122 122 122
114.000000 -58.000000 241.243591 142 142 142
115.000000 -58.000000 240.889343 149 149 149
116.000000 -58.000000 241.243591 146 146 146
117.000000 -58.000000 241.597839 136 136 136
119.000000 -58.000000 62.702080 126 126 126
129.000000 -58.000000 214.674911 132 132 132
130.000000 -58.000000 216.091904 133 133 133
131.000000 -58.000000 215.737656 132 132 132
132.000000 -58.000000 215.029160 131 131 131
133.000000 -58.000000 216.091904 131 131 131
139.000000 -58.000000 8.147728 132 132 132
140.000000 -58.000000 7.439229 122 122 122
141.000000 -58.000000 6.376482 116 116 116
142.000000 -58.000000 5.313735 114 114 114
143.000000 -58.000000 4.605237 115 115 115
152.000000 -58.000000 198.025208 108 108 108
155.000000 -58.000000 224.239639 101 101 101
51.000000 -59.000000 258.247528 119 119 119
52.000000 -59.000000 258.247528 123 123 123
53.000000 -59.000000 260.018799 125 125 125
54.000000 -59.000000 261.790039 129 129 129
55.000000 -59.000000 262.498535 125 125 125
57.000000 -59.000000 41.447136 106 106 106
59.000000 -59.000000 75.455040 106 106 106
60.000000 -59.000000 77.580536 106 106 106
61.000000 -59.000000 78.997536 104 104 104
62.000000 -59.000000 78.997536 106 106 106
67.000000 -59.000000 0.000000 104 104 104
68.000000 -59.000000 0.000000 107 107 107
70.000000 -59.000000 227.427872 111 111 111
71.000000 -59.000000 229.907623 114 114 114
72.000000 -59.000000 231.678864 117 117 117
73.000000 -59.000000 234.512863 117 117 117
74.000000 -59.000000 235.221359 116 116 116
75.000000 -59.000000 234.512863 116 116 116
76.000000 -59.000000 234.158615 117 117 117
77.000000 -59.000000 235.221359 119 119 119
78.000000 -59.000000 235.929855 119 119 119
79.000000 -59.000000 238.409592 117 117 117
81.000000 -59.000000 266.395264 114 114 114
82.000000 -59.000000 266.395264 114 114 114
85.000000 -59.000000 64.119072 124 124 124
86.000000 -59.000000 65.181824 126 126 126
87.000000 -59.000000 65.890320 124 124 124
96.000000 -59.000000 247.974319 34 34 34
100.000000 -59.000000 69.432808 25 25 25
101.000000 -59.000000 70.495560 27 27 27
102.000000 -59.000000 72.975304 27 27 27
111.000000 -59.000000 236.284103 47 47 47
112.000000 -59.000000 238.055344 56 56 56
113.000000 -59.000000 240.535095 93 93 93
114.000000 -59.000000 241.952087 129 129 129
115.000000 -59.000000 240.889343 143 143 143
116.000000 -59.000000 241.243591 148 148 148
117.000000 -59.000000 241.597839 141 141 141
119.000000 -59.000000 63.410576 131 131 131
122.000000 -59.000000 55.262848 119 119 119
123.000000 -59.000000 56.679844 117 117 117
126.000000 -59.000000 211.840927 119 119 119
127.000000 -59.000000 213.612167 121 121 121
128.000000 -59.000000 213.966415 127 127 127
129.000000 -59.000000 215.383408 129 129 129
130.000000 -59.000000 216.800400 130 130 130
131.000000 -59.000000 216.800400 130 130 130
132.000000 -59.000000 215.737656 130 130 130
135.000000 -59.000000 184.563751 134 134 134
136.000000 -59.000000 184.563751 143 143 143
139.000000 -59.000000 8.501977 137 137 137
140.000000 -59.000000 8.147728 128 128 128
141.000000 -59.000000 7.084980 122 122 122
142.000000 -59.000000 6.376482 118 118 118
51.000000 -60.000000 259.664551 119 119 119
52.000000 -60.000000 260.727295 125 125 125
53.000000 -60.000000 262.498535 127 127 127
54.000000 -60.000000 263.207031 131 131 131
55.000000 -60.000000 263.561279 131 131 131
60.000000 -60.000000 77.580536 109 109 109
61.000000 -60.000000 79.351784 108 108 108
62.000000 -60.000000 79.706032 107 107 107
69.000000 -60.000000 222.114136 112 112 112
70.000000 -60.000000 226.719376 113 113 113
71.000000 -60.000000 229.907623 114 114 114
72.000000 -60.000000 232.387360 116 116 116
73.000000 -60.000000 234.867111 117 117 117
75.000000 -60.000000 233.450104 115 115 115
76.000000 -60.000000 234.158615 117 117 117
77.000000 -60.000000 235.221359 118 118 118
78.000000 -60.000000 235.929855 116 116 116
79.000000 -60.000000 238.763840 116 116 116
82.000000 -60.000000 266.395264 111 111 111
84.000000 -60.000000 215.029160 121 121 121
85.000000 -60.000000 64.473320 124 124 124
86.000000 -60.000000 65.181824 126 126 126
87.000000 -60.000000 66.598816 126 126 126
91.000000 -60.000000 157.640823 70 70 70
93.000000 -60.000000 72.975304 29 29 29
94.000000 -60.000000 81.831528 28 28 28
96.000000 -60.000000 247.974319 34 34 34
100.000000 -60.000000 69.432808 27 27 27
112.000000 -60.000000 240.180847 43 43 43
113.000000 -60.000000 241.243591 58 58 58
114.000000 -60.000000 244.077576 88 88 88
115.000000 -60.000000 241.597839 115 115 115
116.000000 -60.000000 241.597839 132 132 132
117.000000 -60.000000 242.306335 142 142 142
118.000000 -60.000000 243.723328 140 140 140
122.000000 -60.000000 56.679844 123 123 123
123.000000 -60.000000 58.451092 120 120 120
124.000000 -60.000000 61.285084 116 116 116
129.000000 -60.000000 216.091904 127 127 127
130.000000 -60.000000 216.800400 128 128 128
134.000000 -60.000000 184.209503 127 127 127
135.000000 -60.000000 184.209503 128 128 128
136.000000 -60.000000 184.917999 133 133 133
140.000000 -60.000000 9.564724 133 133 133
141.000000 -60.000000 8.147728 129 129 129
142.000000 -60.000000 7.793478 124 124 124
51.000000 -61.000000 262.498535 116 116 116
52.000000 -61.000000 263.207031 124 124 124
53.000000 -61.000000 263.561279 127 127 127
54.000000 -61.000000 266.395264 130 130 130
55.000000 -61.000000 266.395264 133 133 133
56.000000 -61.000000 266.395264 125 125 125
61.000000 -61.000000 79.706032 113 113 113
62.000000 -61.000000 80.414528 111 111 111
71.000000 -61.000000 229.907623 115 115 115
72.000000 -61.000000 232.033112 115 115 115
73.000000 -61.000000 233.804367 119 119 119
74.000000 -61.000000 230.261871 118 118 118
75.000000 -61.000000 230.616119 116 116 116
76.000000 -61.000000 232.033112 116 116 116
77.000000 -61.000000 234.867111 113 113 113
79.000000 -61.000000 239.472351 114 114 114
82.000000 -61.000000 266.395264 110 110 110
83.000000 -61.000000 266.395264 113 113 113
84.000000 -61.000000 216.091904 120 120 120
87.000000 -61.000000 67.307312 122 122 122
89.000000 -61.000000 153.389832 119 119 119
93.000000 -61.000000 72.975304 27 27 27
94.000000 -61.000000 80.768776 23 23 23
95.000000 -61.000000 86.082512 22 22 22
100.000000 -61.000000 69.787056 28 28 28
104.000000 -61.000000 183.500992 32 32 32
111.000000 -61.000000 246.203079 35 35 35
112.000000 -61.000000 244.077576 39 39 39
113.000000 -61.000000 244.431824 45 45 45
114.000000 -61.000000 245.848831 53 53 53
115.000000 -61.000000 244.077576 67 67 67
116.000000 -61.000000 242.660583 95 95 95
117.000000 -61.000000 243.014832 134 134 134
118.000000 -61.000000 244.786087 145 145 145
120.000000 -61.000000 66.244568 134 134 134
121.000000 -61.000000 63.410576 128 128 128
122.000000 -61.000000 59.513836 126 126 126
123.000000 -61.000000 59.513836 124 124 124
124.000000 -61.000000 61.639332 118 118 118
135.000000 -61.000000 184.209503 128 128 128
136.000000 -61.000000 184.563751 129 129 129
137.000000 -61.000000 184.917999 133 133 133
140.000000 -61.000000 10.627471 135 135 135
141.000000 -61.000000 9.564724 133 133 133
142.000000 -61.000000 8.501977 129 129 129
144.000000 -61.000000 171.456528 116 116 116
145.000000 -61.000000 172.165024 115 115 115
155.000000 -61.000000 257.184784 107 107 107
51.000000 -62.000000 266.395264 113 113 113
52.000000 -62.000000 266.395264 122 122 122
53.000000 -62.000000 266.395264 125 125 125
54.000000 -62.000000 266.395264 127 127 127
55.000000 -62.000000 266.395264 134 134 134
56.000000 -62.000000 266.395264 128 128 128
61.000000 -62.000000 79.706032 115 115 115
72.000000 -62.000000 231.678864 116 116 116
73.000000 -62.000000 233.095856 122 122 122
74.000000 -62.000000 228.844879 124 124 124
77.000000 -62.000000 234.158615 109 109 109
83.000000 -62.000000 266.395264 110 110 110
89.000000 -62.000000 151.618591 117 117 117
90.000000 -62.000000 153.389832 93 93 93
91.000000 -62.000000 155.869568 49 49 49
93.000000 -62.000000 72.621048 28 28 28
94.000000 -62.000000 80.414528 23 23 23
95.000000 -62.000000 85.728264 18 18 18
102.000000 -62.000000 181.375504 32 32 32
103.000000 -62.000000 182.084000 34 34 34
104.000000 -62.000000 183.146744 36 36 36
105.000000 -62.000000 184.563751 39 39 39
106.000000 -62.000000 184.209503 55 55 55
107.000000 -62.000000 183.855240 78 78 78
108.000000 -62.000000 183.500992 87 87 87
111.000000 -62.000000 247.620071 38 38 38
112.000000 -62.000000 247.265823 42 42 42
113.000000 -62.000000 247.265823 49 49 49
114.000000 -62.000000 247.265823 50 50 50
115.000000 -62.000000 246.557327 54 54 54
116.000000 -62.000000 244.431824 83 83 83
117.000000 -62.000000 244.431824 133 133 133
118.000000 -62.000000 245.494583 152 152 152
120.000000 -62.000000 66.598816 139 139 139
121.000000 -62.000000 65.890320 133 133 133
122.000000 -62.000000 61.639332 128 128 128
123.000000 -62.000000 60.576584 126 126 126
124.000000 -62.000000 63.056328 122 122 122
125.000000 -62.000000 65.536072 116 116 116
136.000000 -62.000000 184.917999 127 127 127
137.000000 -62.000000 185.626495 130 130 130
140.000000 -62.000000 12.044467 136 136 136
141.000000 -62.000000 10.981720 133 133 133
142.000000 -62.000000 9.564724 131 131 131
143.000000 -62.000000 9.564724 127 127 127
145.000000 -62.000000 172.519272 115 115 115
146.000000 -62.000000 173.936279 114 114 114
152.000000 -62.000000 195.191223 109 109 109
51.000000 -63.000000 266.395264 113 113 113
52.000000 -63.000000 266.395264 122 122 122
53.000000 -63.000000 266.395264 126 126 126
54.000000 -63.000000 266.395264 128 128 128
55.000000 -63.000000 266.395264 134 134 134
56.000000 -63.000000 266.395264 131 131 131
64.000000 -63.000000 172.519272 113 113 113
66.000000 -63.000000 171.102280 111 111 111
67.000000 -63.000000 171.810776 114 114 114
71.000000 -63.000000 230.261871 120 120 120
72.000000 -63.000000 233.095856 121 121 121
73.000000 -63.000000 234.158615 125 125 125
74.000000 -63.000000 228.844879 124 124 124
89.000000 -63.000000 150.910080 110 110 110
90.000000 -63.000000 151.972839 80 80 80
91.000000 -63.000000 154.806824 43 43 43
94.000000 -63.000000 78.997536 25 25 25
95.000000 -63.000000 83.957024 21 21 21
102.000000 -63.000000 179.250015 26 26 26
103.000000 -63.000000 180.667007 31 31 31
104.000000 -63.000000 182.084000 38 38 38
105.000000 -63.000000 183.500992 47 47 47
106.000000 -63.000000 183.855240 82 82 82
107.000000 -63.000000 183.855240 120 120 120
108.000000 -63.000000 183.500992 128 128 128
109.000000 -63.000000 184.209503 105 105 105
111.000000 -63.000000 250.099823 61 61 61
112.000000 -63.000000 249.391312 69 69 69
113.000000 -63.000000 249.391312 82 82 82
114.000000 -63.000000 249.745560 84 84 84
115.000000 -63.000000 247.974319 81 81 81
116.000000 -63.000000 245.848831 102 102 102
117.000000 -63.000000 245.140335 137 137 137
118.000000 -63.000000 245.848831 153 153 153
119.000000 -63.000000 246.557327 149 149 149
120.000000 -63.000000 67.307312 140 140 140
121.000000 -63.000000 67.661568 134 134 134
122.000000 -63.000000 65.181824 129 129 129
123.000000 -63.000000 62.347828 125 125 125
124.000000 -63.000000 63.764824 123 123 123
125.000000 -63.000000 65.536072 120 120 120
126.000000 -63.000000 63.056328 116 116 116
127.000000 -63.000000 60.576584 115 115 115
141.000000 -63.000000 12.398716 132 132 132
142.000000 -63.000000 10.627471 130 130 130
143.000000 -63.000000 10.627471 129 129 129
51.000000 -64.000000 266.395264 114 114 114
52.000000 -64.000000 266.395264 123 123 123
53.000000 -64.000000 266.395264 129 129 129
54.000000 -64.000000 266.395264 130 130 130
55.000000 -64.000000 266.395264 132 132 132
56.000000 -64.000000 266.395264 132 132 132
57.000000 -64.000000 266.395264 123 123 123
67.000000 -64.000000 171.102280 116 116 116
71.000000 -64.000000 230.970367 125 125 125
72.000000 -64.000000 234.158615 124 124 124
73.000000 -64.000000 235.221359 122 122 122
84.000000 -64.000000 253.288055 109 109 109
89.000000 -64.000000 149.847336 105 105 105
90.000000 -64.000000 151.264343 70 70 70
91.000000 -64.000000 153.744080 40 40 40
94.000000 -64.000000 77.580536 27 27 27
101.000000 -64.000000 177.124512 20 20 20
102.000000 -64.000000 178.541504 21 21 21
103.000000 -64.000000 179.604263 25 25 25
104.000000 -64.000000 181.021255 34 34 34
105.000000 -64.000000 183.146744 55 55 55
106.000000 -64.000000 183.500992 100 100 100
107.000000 -64.000000 183.500992 130 130 130
108.000000 -64.000000 183.500992 137 137 137
109.000000 -64.000000 184.209503 133 133 133
111.000000 -64.000000 251.516815 109 109 109
112.000000 -64.000000 251.162567 103 103 103
113.000000 -64.000000 251.162567 113 113 113
114.000000 -64.000000 251.516815 119 119 119
115.000000 -64.000000 251.162567 120 120 120
116.000000 -64.000000 246.911575 127 127 127
117.000000 -64.000000 245.848831 138 138 138
118.000000 -64.000000 245.848831 148 148 148
119.000000 -64.000000 246.911575 152 152 152
120.000000 -64.000000 68.370064 144 144 144
121.000000 -64.000000 69.078560 136 136 136
122.000000 -64.000000 66.244568 132 132 132
123.000000 -64.000000 64.827576 127 127 127
124.000000 -64.000000 64.827576 124 124 124
125.000000 -64.000000 65.536072 122 122 122
126.000000 -64.000000 62.702080 118 118 118
127.000000 -64.000000 60.222336 115 115 115
128.000000 -64.000000 59.513836 114 114 114
129.000000 -64.000000 58.451092 114 114 114
134.000000 -64.000000 30.465416 127 127 127
135.000000 -64.000000 30.465416 124 124 124
139.000000 -64.000000 190.231735 132 132 132
140.000000 -64.000000 190.940231 133 133 133
147.000000 -64.000000 174.644775 114 114 114
153.000000 -64.000000 266.395264 111 111 111
154.000000 -64.000000 266.395264 110 110 110
51.000000 -65.000000 266.395264 113 113 113
52.000000 -65.000000 266.395264 120 120 120
53.000000 -65.000000 266.395264 128 128 128
54.000000 -65.000000 266.395264 130 130 130
55.000000 -65.000000 266.395264 130 130 130
56.000000 -65.000000 266.395264 132 132 132
57.000000 -65.000000 266.395264 127 127 127
71.000000 -65.000000 231.324615 120 120 120
72.000000 -65.000000 234.512863 117 117 117
84.000000 -65.000000 253.288055 104 104 104
85.000000 -65.000000 255.767807 108 108 108
89.000000 -65.000000 149.138840 105 105 105
90.000000 -65.000000 150.910080 70 70 70
100.000000 -65.000000 174.644775 22 22 22
101.000000 -65.000000 175.707520 22 22 22
102.000000 -65.000000 177.833008 24 24 24
103.000000 -65.000000 179.250015 27 27 27
104.000000 -65.000000 180.667007 36 36 36
105.000000 -65.000000 182.084000 72 72 72
106.000000 -65.000000 182.792496 118 118 118
107.000000 -65.000000 183.500992 132 132 132
108.000000 -65.000000 183.500992 137 137 137
109.000000 -65.000000 184.209503 143 143 143
112.000000 -65.000000 251.162567 125 125 125
113.000000 -65.000000 251.162567 118 118 118
114.000000 -65.000000 251.871063 122 122 122
115.000000 -65.000000 251.871063 123 123 123
116.000000 -65.000000 247.974319 131 131 131
117.000000 -65.000000 245.848831 136 136 136
118.000000 -65.000000 245.848831 142 142 142
119.000000 -65.000000 246.911575 150 150 150
120.000000 -65.000000 68.724312 148 148 148
121.000000 -65.000000 69.432808 140 140 140
122.000000 -65.000000 68.370064 135 135 135
123.000000 -65.000000 65.536072 129 129 129
124.000000 -65.000000 65.181824 125 125 125
125.000000 -65.000000 65.536072 121 121 121
126.000000 -65.000000 61.285084 119 119 119
127.000000 -65.000000 59.513836 116 116 116
128.000000 -65.000000 59.159588 114 114 114
129.000000 -65.000000 58.451092 113 113 113
134.000000 -65.000000 30.465416 125 125 125
135.000000 -65.000000 30.465416 126 126 126
136.000000 -65.000000 30.465416 123 123 123
139.000000 -65.000000 191.294479 125 125 125
140.000000 -65.000000 192.357224 130 130 130
141.000000 -65.000000 193.419968 132 132 132
142.000000 -65.000000 194.128464 133 133 133
153.000000 -65.000000 266.395264 110 110 110
154.000000 -65.000000 266.395264 110 110 110
51.000000 -66.000000 266.395264 111 111 111
52.000000 -66.000000 266.395264 116 116 116
53.000000 -66.000000 266.395264 126 126 126
54.000000 -66.000000 266.395264 130 130 130
55.000000 -66.000000 266.395264 129 129 129
56.000000 -66.000000 266.395264 131 131 131
70.000000 -66.000000 222.114136 110 110 110
84.000000 -66.000000 253.996552 102 102 102
85.000000 -66.000000 256.122040 106 106 106
89.000000 -66.000000 149.493088 112 112 112
90.000000 -66.000000 150.910080 92 92 92
99.000000 -66.000000 174.290527 27 27 27
100.000000 -66.000000 174.290527 27 27 27
101.000000 -66.000000 174.999023 28 28 28
102.000000 -66.000000 177.478760 30 30 30
103.000000 -66.000000 178.541504 34 34 34
104.000000 -66.000000 179.604263 50 50 50
105.000000 -66.000000 180.312759 97 97 97
106.000000 -66.000000 180.667007 130 130 130
107.000000 -66.000000 182.438248 133 133 133
108.000000 -66.000000 183.146744 136 136 136
109.000000 -66.000000 183.855240 140 140 140
112.000000 -66.000000 251.162567 134 134 134
113.000000 -66.000000 251.162567 123 123 123
114.000000 -66.000000 251.871063 121 121 121
115.000000 -66.000000 252.225311 119 119 119
116.000000 -66.000000 251.162567 127 127 127
117.000000 -66.000000 246.203079 135 135 135
118.000000 -66.000000 245.848831 138 138 138
119.000000 -66.000000 246.557327 144 144 144
121.000000 -66.000000 70.141312 144 144 144
122.000000 -66.000000 69.432808 137 137 137
124.000000 -66.000000 64.473320 127 127 127
125.000000 -66.000000 65.181824 123 123 123
126.000000 -66.000000 60.222336 122 122 122
127.000000 -66.000000 59.513836 120 120 120
128.000000 -66.000000 58.805340 116 116 116
131.000000 -66.000000 155.869568 114 114 114
132.000000 -66.000000 155.869568 114 114 114
133.000000 -66.000000 155.161072 117 117 117
135.000000 -66.000000 30.465416 125 125 125
136.000000 -66.000000 30.819666 123 123 123
138.000000 -66.000000 193.419968 118 118 118
139.000000 -66.000000 194.128464 120 120 120
140.000000 -66.000000 194.482712 124 124 124
141.000000 -66.000000 195.191223 128 128 128
142.000000 -66.000000 195.191223 132 132 132
143.000000 -66.000000 195.899719 131 131 131
144.000000 -66.000000 195.899719 123 123 123
145.000000 -66.000000 195.899719 119 119 119
153.000000 -66.000000 266.395264 108 108 108
154.000000 -66.000000 266.395264 110 110 110
51.000000 -67.000000 266.395264 110 110 110
52.000000 -67.000000 266.395264 114 114 114
53.000000 -67.000000 266.395264 124 124 124
54.000000 -67.000000 266.395264 130 130 130
55.000000 -67.000000 266.395264 129 129 129
56.000000 -67.000000 266.395264 129 129 129
58.000000 -67.000000 46.052376 118 118 118
70.000000 -67.000000 221.405640 105 105 105
77.000000 -67.000000 71.204056 128 128 128
78.000000 -67.000000 72.266800 125 125 125
83.000000 -67.000000 253.288055 107 107 107
84.000000 -67.000000 254.705048 105 105 105
85.000000 -67.000000 256.476288 105 105 105
100.000000 -67.000000 174.290527 31 31 31
101.000000 -67.000000 174.999023 33 33 33
102.000000 -67.000000 177.124512 36 36 36
103.000000 -67.000000 178.187256 42 42 42
104.000000 -67.000000 178.895767 74 74 74
105.000000 -67.000000 179.250015 118 118 118
106.000000 -67.000000 179.604263 134 134 134
107.000000 -67.000000 182.438248 136 136 136
108.000000 -67.000000 183.146744 136 136 136
112.000000 -67.000000 251.162567 130 130 130
113.000000 -67.000000 251.516815 122 122 122
114.000000 -67.000000 251.871063 119 119 119
115.000000 -67.000000 252.225311 118 118 118
118.000000 -67.000000 246.203079 140 140 140
119.000000 -67.000000 246.911575 142 142 142
121.000000 -67.000000 70.849808 150 150 150
122.000000 -67.000000 70.495560 143 143 143
126.000000 -67.000000 59.159588 125 125 125
127.000000 -67.000000 57.742592 123 123 123
128.000000 -67.000000 57.034096 120 120 120
130.000000 -67.000000 156.578064 115 115 115
131.000000 -67.000000 156.578064 117 117 117
133.000000 -67.000000 155.515320 117 117 117
135.000000 -67.000000 31.528164 123 123 123
136.000000 -67.000000 31.173914 123 123 123
137.000000 -67.000000 31.528164 121 121 121
139.000000 -67.000000 195.545471 118 118 118
140.000000 -67.000000 195.899719 120 120 120
141.000000 -67.000000 195.899719 123 123 123
142.000000 -67.000000 195.899719 126 126 126
143.000000 -67.000000 196.253967 127 127 127
144.000000 -67.000000 196.608215 123 123 123
145.000000 -67.000000 196.608215 117 117 117
146.000000 -67.000000 195.899719 118 118 118
153.000000 -67.000000 266.395264 113 113 113
154.000000 -67.000000 266.395264 119 119 119
51.000000 -68.000000 266.395264 108 108 108
52.000000 -68.000000 266.395264 111 111 111
53.000000 -68.000000 266.395264 119 119 119
54.000000 -68.000000 266.395264 129 129 129
55.000000 -68.000000 266.395264 131 131 131
56.000000 -68.000000 266.395264 130 130 130
58.000000 -68.000000 46.052376 124 124 124
70.000000 -68.000000 221.051392 111 111 111
72.000000 -68.000000 221.051392 125 125 125
77.000000 -68.000000 71.558304 127 127 127
78.000000 -68.000000 72.621048 121 121 121
79.000000 -68.000000 74.038048 118 118 118
84.000000 -68.000000 255.767807 110 110 110
85.000000 -68.000000 257.184784 108 108 108
96.000000 -68.000000 87.145264 82 82 82
101.000000 -68.000000 174.644775 38 38 38
102.000000 -68.000000 176.770264 41 41 41
103.000000 -68.000000 177.478760 57 57 57
107.000000 -68.000000 182.438248 137 137 137
108.000000 -68.000000 183.855240 138 138 138
112.000000 -68.000000 251.162567 127 127 127
113.000000 -68.000000 251.162567 123 123 123
114.000000 -68.000000 251.516815 121 121 121
115.000000 -68.000000 252.225311 122 122 122
119.000000 -68.000000 247.265823 144 144 144
121.000000 -68.000000 71.558304 151 151 151
122.000000 -68.000000 71.558304 146 146 146
127.000000 -68.000000 56.325596 125 125 125
129.000000 -68.000000 155.515320 119 119 119
130.000000 -68.000000 156.578064 117 117 117
131.000000 -68.000000 156.932327 119 119 119
135.000000 -68.000000 31.882412 123 123 123
136.000000 -68.000000 31.528164 124 124 124
137.000000 -68.000000 31.882412 123 123 123
139.000000 -68.000000 196.253967 117 117 117
140.000000 -68.000000 196.253967 118 118 118
141.000000 -68.000000 196.962463 121 121 121
142.000000 -68.000000 196.962463 123 123 123
143.000000 -68.000000 196.962463 124 124 124
144.000000 -68.000000 197.316711 123 123 123
145.000000 -68.000000 197.670959 118 118 118
146.000000 -68.000000 197.316711 118 118 118
153.000000 -68.000000 266.395264 121 121 121
154.000000 -68.000000 266.395264 126 126 126
51.000000 -69.000000 266.395264 104 104 104
54.000000 -69.000000 266.395264 126 126 126
66.000000 -69.000000 156.578064 105 105 105
78.000000 -69.000000 72.266800 120 120 120
79.000000 -69.000000 74.746544 116 116 116
85.000000 -69.000000 258.601807 109 109 109
101.000000 -69.000000 173.936279 63 63 63
102.000000 -69.000000 175.707520 63 63 63
112.000000 -69.000000 251.162567 129 129 129
113.000000 -69.000000 251.162567 130 130 130
121.000000 -69.000000 73.329552 150 150 150
122.000000 -69.000000 72.975304 147 147 147
129.000000 -69.000000 154.806824 120 120 120
130.000000 -69.000000 156.223816 120 120 120
131.000000 -69.000000 156.932327 120 120 120
135.000000 -69.000000 32.590912 125 125 125
136.000000 -69.000000 31.528164 126 126 126
137.000000 -69.000000 31.882412 123 123 123
139.000000 -69.000000 196.608215 118 118 118
140.000000 -69.000000 196.962463 116 116 116
141.000000 -69.000000 197.670959 117 117 117
142.000000 -69.000000 197.670959 120 120 120
143.000000 -69.000000 197.670959 124 124 124
144.000000 -69.000000 198.733704 121 121 121
145.000000 -69.000000 199.442200 120 120 120
146.000000 -69.000000 199.442200 123 123 123
152.000000 -69.000000 266.395264 114 114 114
153.000000 -69.000000 266.395264 120 120 120
154.000000 -69.000000 266.395264 125 125 125
78.000000 -70.000000 72.266800 119 119 119
79.000000 -70.000000 74.746544 115 115 115
80.000000 -70.000000 76.163544 114 114 114
90.000000 -70.000000 156.223816 116 116 116
107.000000 -70.000000 251.516815 137 137 137
112.000000 -70.000000 250.808319 137 137 137
113.000000 -70.000000 250.808319 137 137 137
124.000000 -70.000000 53.491604 136 136 136
129.000000 -70.000000 155.515320 120 120 120
130.000000 -70.000000 156.932327 120 120 120
131.000000 -70.000000 157.995071 121 121 121
139.000000 -70.000000 196.608215 119 119 119
140.000000 -70.000000 196.962463 115 115 115
141.000000 -70.000000 198.379456 110 110 110
142.000000 -70.000000 198.379456 111 111 111
143.000000 -70.000000 198.379456 116 116 116
144.000000 -70.000000 199.442200 118 118 118
145.000000 -70.000000 200.504944 124 124 124
146.000000 -70.000000 200.504944 128 128 128
149.000000 -70.000000 88.916504 119 119 119
150.000000 -70.000000 89.979256 119 119 119
152.000000 -70.000000 266.395264 113 113 113
153.000000 -70.000000 266.395264 115 115 115
154.000000 -70.000000 266.395264 120 120 120
51.000000 -71.000000 142.408112 105 105 105
78.000000 -71.000000 72.266800 119 119 119
79.000000 -71.000000 74.746544 115 115 115
80.000000 -71.000000 76.163544 114 114 114
81.000000 -71.000000 76.872040 113 113 113
84.000000 -71.000000 75.455040 108 108 108
90.000000 -71.000000 156.578064 118 118 118
91.000000 -71.000000 158.703568 117 117 117
92.000000 -71.000000 159.766312 118 118 118
102.000000 -71.000000 69.078560 135 135 135
107.000000 -71.000000 250.808319 143 143 143
108.000000 -71.000000 251.516815 140 140 140
111.000000 -71.000000 250.454071 147 147 147
112.000000 -71.000000 250.454071 143 143 143
113.000000 -71.000000 250.454071 140 140 140
118.000000 -71.000000 120.798920 150 150 150
125.000000 -71.000000 52.783104 138 138 138
140.000000 -71.000000 196.962463 109 109 109
141.000000 -71.000000 198.379456 102 102 102
142.000000 -71.000000 198.733704 102 102 102
143.000000 -71.000000 198.733704 107 107 107
144.000000 -71.000000 199.796448 114 114 114
145.000000 -71.000000 200.859207 118 118 118
150.000000 -71.000000 88.916504 114 114 114
152.000000 -71.000000 266.395264 111 111 111
153.000000 -71.000000 266.395264 111 111 111
51.000000 -72.000000 143.470856 106 106 106
57.000000 -72.000000 86.082512 130 130 130
67.000000 -72.000000 204.047440 118 118 118
68.000000 -72.000000 205.110184 114 114 114
69.000000 -72.000000 204.047440 120 120 120
70.000000 -72.000000 203.338943 123 123 123
71.000000 -72.000000 203.693192 120 120 120
72.000000 -72.000000 204.047440 119 119 119
78.000000 -72.000000 71.912552 119 119 119
79.000000 -72.000000 75.100792 114 114 114
80.000000 -72.000000 76.163544 112 112 112
84.000000 -72.000000 75.100792 104 104 104
85.000000 -72.000000 75.455040 108 108 108
91.000000 -72.000000 160.120560 123 123 123
92.000000 -72.000000 160.829056 121 121 121
107.000000 -72.000000 249.391312 150 150 150
108.000000 -72.000000 250.454071 145 145 145
109.000000 -72.000000 250.808319 144 144 144
110.000000 -72.000000 250.454071 149 149 149
111.000000 -72.000000 249.745560 151 151 151
112.000000 -72.000000 250.099823 148 148 148
113.000000 -72.000000 250.454071 143 143 143
117.000000 -72.000000 117.610680 147 147 147
118.000000 -72.000000 119.381920 147 147 147
119.000000 -72.000000 121.507416 143 143 143
120.000000 -72.000000 120.798920 132 132 132
128.000000 -72.000000 266.395264 124 124 124
132.000000 -72.000000 177.833008 121 121 121
133.000000 -72.000000 179.250015 122 122 122
134.000000 -72.000000 181.729752 117 117 117
143.000000 -72.000000 199.442200 107 107 107
144.000000 -72.000000 200.150696 110 110 110
150.000000 -72.000000 88.562256 111 111 111
151.000000 -72.000000 89.625008 112 112 112
153.000000 -72.000000 266.395264 108 108 108
51.000000 -73.000000 144.179352 104 104 104
57.000000 -73.000000 86.436760 131 131 131
58.000000 -73.000000 86.791016 133 133 133
66.000000 -73.000000 203.693192 114 114 114
67.000000 -73.000000 204.401688 116 116 116
68.000000 -73.000000 205.464432 114 114 114
69.000000 -73.000000 205.110184 117 117 117
70.000000 -73.000000 204.755936 123 123 123
71.000000 -73.000000 205.110184 124 124 124
72.000000 -73.000000 204.755936 126 126 126
74.000000 -73.000000 184.917999 128 128 128
77.000000 -73.000000 63.764824 121 121 121
79.000000 -73.000000 75.455040 116 116 116
80.000000 -73.000000 76.517792 111 111 111
81.000000 -73.000000 76.163544 110 110 110
92.000000 -73.000000 161.891800 119 119 119
97.000000 -73.000000 224.948135 114 114 114
100.000000 -73.000000 153.744080 131 131 131
101.000000 -73.000000 153.744080 133 133 133
102.000000 -73.000000 154.452576 138 138 138
103.000000 -73.000000 156.223816 141 141 141
104.000000 -73.000000 157.640823 144 144 144
107.000000 -73.000000 248.328568 153 153 153
108.000000 -73.000000 249.745560 153 153 153
109.000000 -73.000000 250.099823 148 148 148
110.000000 -73.000000 249.391312 149 149 149
111.000000 -73.000000 249.745560 153 153 153
112.000000 -73.000000 250.099823 151 151 151
113.000000 -73.000000 250.454071 145 145 145
117.000000 -73.000000 116.902184 144 144 144
118.000000 -73.000000 117.964928 142 142 142
119.000000 -73.000000 120.090424 136 136 136
122.000000 -73.000000 105.211960 107 107 107
132.000000 -73.000000 179.958511 122 122 122
133.000000 -73.000000 179.604263 120 120 120
134.000000 -73.000000 181.729752 114 114 114
135.000000 -73.000000 183.146744 108 108 108
144.000000 -73.000000 200.504944 104 104 104
145.000000 -73.000000 201.567703 111 111 111
146.000000 -73.000000 201.921951 116 116 116
57.000000 -74.000000 86.436760 131 131 131
58.000000 -74.000000 87.145264 131 131 131
66.000000 -74.000000 203.693192 113 113 113
67.000000 -74.000000 204.755936 114 114 114
68.000000 -74.000000 206.172943 117 117 117
69.000000 -74.000000 205.818680 118 118 118
70.000000 -74.000000 206.172943 124 124 124
71.000000 -74.000000 206.172943 128 128 128
72.000000 -74.000000 206.172943 129 129 129
74.000000 -74.000000 183.855240 129 129 129
77.000000 -74.000000 63.410576 128 128 128
79.000000 -74.000000 75.455040 121 121 121
80.000000 -74.000000 76.163544 117 117 117
90.000000 -74.000000 0.000000 118 118 118
97.000000 -74.000000 225.302383 114 114 114
99.000000 -74.000000 154.806824 124 124 124
100.000000 -74.000000 153.035583 130 130 130
101.000000 -74.000000 153.035583 132 132 132
102.000000 -74.000000 154.098328 137 137 137
103.000000 -74.000000 155.869568 143 143 143
104.000000 -74.000000 156.578064 147 147 147
107.000000 -74.000000 248.682816 152 152 152
108.000000 -74.000000 250.099823 154 154 154
109.000000 -74.000000 250.808319 153 153 153
110.000000 -74.000000 250.454071 148 148 148
111.000000 -74.000000 250.454071 150 150 150
112.000000 -74.000000 251.162567 151 151 151
113.000000 -74.000000 251.162567 147 147 147
115.000000 -74.000000 180.312759 143 143 143
117.000000 -74.000000 116.547928 144 144 144
118.000000 -74.000000 117.256432 144 144 144
119.000000 -74.000000 119.027672 137 137 137
122.000000 -74.000000 108.400200 114 114 114
123.000000 -74.000000 108.400200 104 104 104
131.000000 -74.000000 180.667007 131 131 131
132.000000 -74.000000 182.084000 130 130 130
133.000000 -74.000000 181.375504 123 123 123
134.000000 -74.000000 182.438248 117 117 117
141.000000 -74.000000 47.469372 114 114 114
142.000000 -74.000000 47.823620 111 111 111
146.000000 -74.000000 202.630447 117 117 117
150.000000 -74.000000 113.005440 109 109 109
151.000000 -74.000000 111.942696 110 110 110
153.000000 -74.000000 111.588448 109 109 109
57.000000 -75.000000 86.436760 127 127 127
58.000000 -75.000000 87.145264 128 128 128
62.000000 -75.000000 266.395264 115 115 115
66.000000 -75.000000 204.047440 113 113 113
67.000000 -75.000000 205.464432 113 113 113
68.000000 -75.000000 206.881439 117 117 117
69.000000 -75.000000 206.881439 117 117 117
70.000000 -75.000000 207.235687 124 124 124
71.000000 -75.000000 207.589935 129 129 129
90.000000 -75.000000 0.000000 113 113 113
91.000000 -75.000000 0.000000 120 120 120
93.000000 -75.000000 0.000000 118 118 118
94.000000 -75.000000 0.000000 116 116 116
98.000000 -75.000000 155.515320 115 115 115
99.000000 -75.000000 154.806824 120 120 120
100.000000 -75.000000 152.681335 129 129 129
101.000000 -75.000000 152.327087 132 132 132
102.000000 -75.000000 153.389832 137 137 137
103.000000 -75.000000 155.515320 144 144 144
104.000000 -75.000000 156.223816 150 150 150
107.000000 -75.000000 248.682816 152 152 152
108.000000 -75.000000 250.099823 152 152 152
109.000000 -75.000000 251.162567 153 153 153
110.000000 -75.000000 251.516815 149 149 149
111.000000 -75.000000 250.808319 147 147 147
112.000000 -75.000000 251.516815 150 150 150
113.000000 -75.000000 251.871063 148 148 148
115.000000 -75.000000 180.667007 142 142 142
117.000000 -75.000000 116.902184 146 146 146
118.000000 -75.000000 117.610680 150 150 150
119.000000 -75.000000 118.319176 145 145 145
120.000000 -75.000000 114.776688 136 136 136
121.000000 -75.000000 110.879944 135 135 135
122.000000 -75.000000 110.171448 130 130 130
123.000000 -75.000000 109.817200 117 117 117
124.000000 -75.000000 109.108704 111 111 111
131.000000 -75.000000 182.084000 136 136 136
132.000000 -75.000000 183.500992 132 132 132
133.000000 -75.000000 183.500992 127 127 127
134.000000 -75.000000 183.500992 120 120 120
136.000000 -75.000000 186.334991 111 111 111
141.000000 -75.000000 48.532116 113 113 113
147.000000 -75.000000 203.338943 117 117 117
150.000000 -75.000000 113.005440 110 110 110
151.000000 -75.000000 112.651192 109 109 109
152.000000 -75.000000 111.588448 110 110 110
153.000000 -75.000000 111.588448 107 107 107
51.000000 -76.000000 114.068192 99 99 99
52.000000 -76.000000 116.902184 105 105 105
57.000000 -76.000000 86.791016 126 126 126
58.000000 -76.000000 87.853760 128 128 128
59.000000 -76.000000 88.916504 129 129 129
67.000000 -76.000000 205.818680 111 111 111
68.000000 -76.000000 207.235687 112 112 112
69.000000 -76.000000 207.944183 114 114 114
70.000000 -76.000000 208.298431 122 122 122
71.000000 -76.000000 209.715424 129 129 129
86.000000 -76.000000 75.809296 96 96 96
91.000000 -76.000000 0.000000 114 114 114
98.000000 -76.000000 155.869568 120 120 120
99.000000 -76.000000 155.869568 122 122 122
100.000000 -76.000000 154.098328 128 128 128
101.000000 -76.000000 153.389832 131 131 131
102.000000 -76.000000 153.744080 136 136 136
103.000000 -76.000000 155.515320 142 142 142
104.000000 -76.000000 156.223816 149 149 149
105.000000 -76.000000 155.161072 154 154 154
107.000000 -76.000000 248.682816 153 153 153
108.000000 -76.000000 250.454071 151 151 151
109.000000 -76.000000 251.516815 152 152 152
110.000000 -76.000000 251.871063 154 154 154
111.000000 -76.000000 251.516815 150 150 150
112.000000 -76.000000 252.225311 150 150 150
113.000000 -76.000000 252.579559 151 151 151
116.000000 -76.000000 181.729752 143 143 143
118.000000 -76.000000 117.964928 148 148 148
119.000000 -76.000000 119.027672 148 148 148
121.000000 -76.000000 111.588448 142 142 142
123.000000 -76.000000 109.817200 126 126 126
129.000000 -76.000000 183.146744 155 155 155
130.000000 -76.000000 181.375504 146 146 146
131.000000 -76.000000 182.438248 136 136 136
132.000000 -76.000000 183.855240 131 131 131
133.000000 -76.000000 183.855240 126 126 126
134.000000 -76.000000 183.500992 121 121 121
135.000000 -76.000000 184.563751 115 115 115
136.000000 -76.000000 187.043488 109 109 109
139.000000 -76.000000 11.690218 109 109 109
151.000000 -76.000000 112.651192 111 111 111
152.000000 -76.000000 112.296944 109 109 109
153.000000 -76.000000 112.296944 108 108 108
51.000000 -77.000000 115.130936 98 98 98
52.000000 -77.000000 117.610680 105 105 105
57.000000 -77.000000 87.145264 125 125 125
58.000000 -77.000000 88.208008 128 128 128
59.000000 -77.000000 89.979256 128 128 128
69.000000 -77.000000 209.715424 114 114 114
70.000000 -77.000000 210.069672 121 121 121
71.000000 -77.000000 211.486664 131 131 131
87.000000 -77.000000 76.163544 100 100 100
88.000000 -77.000000 71.912552 99 99 99
89.000000 -77.000000 73.683800 98 98 98
90.000000 -77.000000 76.163544 99 99 99
98.000000 -77.000000 156.223816 126 126 126
100.000000 -77.000000 155.515320 122 122 122
101.000000 -77.000000 154.806824 128 128 128
102.000000 -77.000000 154.806824 133 133 133
103.000000 -77.000000 155.515320 139 139 139
104.000000 -77.000000 156.223816 146 146 146
105.000000 -77.000000 154.806824 152 152 152
106.000000 -77.000000 151.264343 155 155 155
108.000000 -77.000000 250.454071 153 153 153
109.000000 -77.000000 251.871063 151 151 151
110.000000 -77.000000 252.579559 155 155 155
111.000000 -77.000000 252.579559 153 153 153
112.000000 -77.000000 252.933807 151 151 151
113.000000 -77.000000 253.642303 151 151 151
118.000000 -77.000000 118.319176 145 145 145
119.000000 -77.000000 119.027672 147 147 147
128.000000 -77.000000 184.917999 144 144 144
129.000000 -77.000000 184.209503 153 153 153
130.000000 -77.000000 183.855240 151 151 151
131.000000 -77.000000 183.855240 140 140 140
132.000000 -77.000000 184.563751 132 132 132
133.000000 -77.000000 184.563751 127 127 127
134.000000 -77.000000 184.209503 125 125 125
135.000000 -77.000000 185.272247 119 119 119
136.000000 -77.000000 187.043488 112 112 112
138.000000 -77.000000 10.627471 105 105 105
139.000000 -77.000000 11.690218 106 106 106
140.000000 -77.000000 12.398716 107 107 107
151.000000 -77.000000 112.651192 116 116 116
152.000000 -77.000000 112.651192 113 113 113
154.000000 -77.000000 134.614624 109 109 109
51.000000 -78.000000 115.485184 98 98 98
52.000000 -78.000000 118.319176 103 103 103
57.000000 -78.000000 87.145264 124 124 124
58.000000 -78.000000 88.562256 128 128 128
59.000000 -78.000000 90.687752 127 127 127
67.000000 -78.000000 53.491604 113 113 113
87.000000 -78.000000 75.809296 107 107 107
88.000000 -78.000000 71.912552 102 102 102
89.000000 -78.000000 73.329552 96 96 96
90.000000 -78.000000 75.455040 97 97 97
91.000000 -78.000000 73.329552 106 106 106
92.000000 -78.000000 74.392296 119 119 119
93.000000 -78.000000 75.455040 133 133 133
98.000000 -78.000000 156.578064 127 127 127
99.000000 -78.000000 156.578064 120 120 120
100.000000 -78.000000 156.578064 119 119 119
101.000000 -78.000000 155.869568 126 126 126
102.000000 -78.000000 155.515320 132 132 132
103.000000 -78.000000 155.869568 137 137 137
104.000000 -78.000000 156.223816 143 143 143
105.000000 -78.000000 153.389832 147 147 147
106.000000 -78.000000 149.847336 152 152 152
107.000000 -78.000000 149.493088 154 154 154
110.000000 -78.000000 252.579559 152 152 152
111.000000 -78.000000 253.288055 152 152 152
112.000000 -78.000000 253.642303 150 150 150
113.000000 -78.000000 254.350800 150 150 150
114.000000 -78.000000 255.059296 150 150 150
118.000000 -78.000000 119.381920 142 142 142
119.000000 -78.000000 120.090424 144 144 144
127.000000 -78.000000 184.917999 141 141 141
128.000000 -78.000000 184.917999 140 140 140
129.000000 -78.000000 184.563751 147 147 147
130.000000 -78.000000 184.563751 153 153 153
131.000000 -78.000000 184.563751 147 147 147
132.000000 -78.000000 185.626495 136 136 136
133.000000 -78.000000 186.334991 129 129 129
135.000000 -78.000000 185.272247 122 122 122
136.000000 -78.000000 187.751984 117 117 117
138.000000 -78.000000 10.627471 105 105 105
139.000000 -78.000000 12.044467 104 104 104
140.000000 -78.000000 13.107214 104 104 104
143.000000 -78.000000 51.366108 106 106 106
154.000000 -78.000000 133.551880 109 109 109
155.000000 -78.000000 134.968887 107 107 107
51.000000 -79.000000 116.193680 98 98 98
57.000000 -79.000000 87.145264 122 122 122
58.000000 -79.000000 88.916504 128 128 128
59.000000 -79.000000 90.687752 129 129 129
63.000000 -79.000000 58.451092 121 121 121
66.000000 -79.000000 54.554352 116 116 116
67.000000 -79.000000 53.845852 117 117 117
68.000000 -79.000000 53.845852 115 115 115
69.000000 -79.000000 53.491604 118 118 118
70.000000 -79.000000 53.491604 122 122 122
71.000000 -79.000000 53.491604 131 131 131
87.000000 -79.000000 75.455040 111 111 111
