ply
		format ascii 1.0
		element vertex 4753
		property float x
		property float y
		property float z
		property uchar red
		property uchar green
		property uchar blue
		end_header
130.000000 -6.000000 7.799071 27 27 27
131.000000 -6.000000 149.245865 28 28 28
132.000000 -6.000000 148.536865 41 41 41
133.000000 -6.000000 147.118851 58 58 58
134.000000 -6.000000 148.182358 61 61 61
135.000000 -6.000000 148.182358 61 61 61
136.000000 -6.000000 148.182358 61 61 61
142.000000 -6.000000 137.547256 59 59 59
146.000000 -6.000000 154.563416 57 57 57
147.000000 -6.000000 155.626923 56 56 56
155.000000 -6.000000 109.186996 19 19 19
66.000000 -7.000000 141.092285 7 7 7
67.000000 -7.000000 141.801300 11 11 11
68.000000 -7.000000 142.864807 8 8 8
69.000000 -7.000000 141.801300 13 13 13
70.000000 -7.000000 140.737793 44 44 44
71.000000 -7.000000 140.737793 58 58 58
72.000000 -7.000000 139.319778 60 60 60
73.000000 -7.000000 139.674271 61 61 61
78.000000 -7.000000 132.229706 61 61 61
82.000000 -7.000000 139.674271 62 62 62
83.000000 -7.000000 140.028778 62 62 62
84.000000 -7.000000 141.092285 61 61 61
85.000000 -7.000000 142.155807 58 58 58
86.000000 -7.000000 141.092285 42 42 42
87.000000 -7.000000 140.737793 28 28 28
88.000000 -7.000000 140.028778 25 25 25
89.000000 -7.000000 141.092285 25 25 25
90.000000 -7.000000 140.383286 28 28 28
91.000000 -7.000000 140.028778 44 44 44
93.000000 -7.000000 256.305847 64 64 64
94.000000 -7.000000 256.305847 64 64 64
96.000000 -7.000000 24.460724 65 65 65
97.000000 -7.000000 26.233240 65 65 65
100.000000 -7.000000 54.948002 64 64 64
112.000000 -7.000000 193.913269 64 64 64
116.000000 -7.000000 175.124603 64 64 64
117.000000 -7.000000 176.188110 64 64 64
118.000000 -7.000000 176.188110 65 65 65
122.000000 -7.000000 148.536865 64 64 64
123.000000 -7.000000 147.473343 63 63 63
124.000000 -7.000000 147.473343 62 62 62
125.000000 -7.000000 149.245865 62 62 62
128.000000 -7.000000 148.536865 29 29 29
131.000000 -7.000000 148.891357 30 30 30
132.000000 -7.000000 148.182358 44 44 44
133.000000 -7.000000 147.118851 58 58 58
134.000000 -7.000000 147.473343 60 60 60
135.000000 -7.000000 147.827850 60 60 60
136.000000 -7.000000 147.118851 61 61 61
141.000000 -7.000000 136.838257 59 59 59
142.000000 -7.000000 137.192749 59 59 59
145.000000 -7.000000 151.727386 57 57 57
146.000000 -7.000000 152.790894 57 57 57
147.000000 -7.000000 155.626923 56 56 56
149.000000 -7.000000 156.690430 55 55 55
150.000000 -7.000000 156.690430 55 55 55
155.000000 -7.000000 108.832497 19 19 19
156.000000 -7.000000 110.250511 33 33 33
66.000000 -8.000000 141.446793 7 7 7
67.000000 -8.000000 141.801300 13 13 13
68.000000 -8.000000 142.864807 11 11 11
69.000000 -8.000000 141.801300 15 15 15
70.000000 -8.000000 140.737793 44 44 44
71.000000 -8.000000 140.737793 58 58 58
82.000000 -8.000000 140.028778 62 62 62
83.000000 -8.000000 140.028778 62 62 62
84.000000 -8.000000 140.383286 62 62 62
85.000000 -8.000000 141.801300 59 59 59
86.000000 -8.000000 140.737793 41 41 41
87.000000 -8.000000 140.383286 28 28 28
88.000000 -8.000000 140.028778 27 27 27
89.000000 -8.000000 140.737793 27 27 27
90.000000 -8.000000 140.383286 30 30 30
91.000000 -8.000000 140.028778 47 47 47
93.000000 -8.000000 256.660339 63 63 63
94.000000 -8.000000 256.305847 63 63 63
96.000000 -8.000000 22.688208 64 64 64
97.000000 -8.000000 25.169731 64 64 64
99.000000 -8.000000 30.487280 63 63 63
109.000000 -8.000000 168.034531 64 64 64
110.000000 -8.000000 168.743546 64 64 64
116.000000 -8.000000 175.124603 63 63 63
117.000000 -8.000000 175.833603 64 64 64
118.000000 -8.000000 175.833603 65 65 65
122.000000 -8.000000 148.182358 63 63 63
123.000000 -8.000000 148.182358 64 64 64
124.000000 -8.000000 148.536865 63 63 63
125.000000 -8.000000 149.600372 63 63 63
126.000000 -8.000000 149.245865 57 57 57
127.000000 -8.000000 149.245865 39 39 39
128.000000 -8.000000 148.891357 29 29 29
130.000000 -8.000000 149.245865 28 28 28
131.000000 -8.000000 148.891357 33 33 33
132.000000 -8.000000 147.827850 49 49 49
133.000000 -8.000000 146.409836 59 59 59
134.000000 -8.000000 146.409836 60 60 60
135.000000 -8.000000 146.764343 61 61 61
136.000000 -8.000000 146.764343 60 60 60
141.000000 -8.000000 136.483749 59 59 59
142.000000 -8.000000 136.838257 59 59 59
145.000000 -8.000000 151.372879 56 56 56
146.000000 -8.000000 152.081894 56 56 56
147.000000 -8.000000 155.272415 56 56 56
149.000000 -8.000000 157.044937 55 55 55
150.000000 -8.000000 157.044937 54 54 54
151.000000 -8.000000 157.044937 54 54 54
155.000000 -8.000000 108.477989 20 20 20
156.000000 -8.000000 109.896004 34 34 34
66.000000 -9.000000 141.801300 10 10 10
67.000000 -9.000000 142.155807 16 16 16
68.000000 -9.000000 142.864807 11 11 11
69.000000 -9.000000 141.801300 16 16 16
70.000000 -9.000000 140.737793 44 44 44
71.000000 -9.000000 140.737793 58 58 58
72.000000 -9.000000 139.319778 60 60 60
73.000000 -9.000000 139.674271 61 61 61
74.000000 -9.000000 139.319778 60 60 60
79.000000 -9.000000 3.899536 61 61 61
82.000000 -9.000000 140.383286 62 62 62
83.000000 -9.000000 140.737793 62 62 62
84.000000 -9.000000 141.092285 61 61 61
85.000000 -9.000000 141.801300 59 59 59
86.000000 -9.000000 140.737793 45 45 45
87.000000 -9.000000 140.737793 30 30 30
88.000000 -9.000000 140.028778 27 27 27
89.000000 -9.000000 140.737793 27 27 27
90.000000 -9.000000 140.383286 34 34 34
91.000000 -9.000000 140.028778 53 53 53
92.000000 -9.000000 139.319778 62 62 62
96.000000 -9.000000 22.688208 64 64 64
97.000000 -9.000000 24.460724 64 64 64
99.000000 -9.000000 26.587744 63 63 63
100.000000 -9.000000 30.841782 63 63 63
109.000000 -9.000000 167.680038 64 64 64
116.000000 -9.000000 174.770096 63 63 63
117.000000 -9.000000 175.124603 64 64 64
118.000000 -9.000000 175.479111 65 65 65
122.000000 -9.000000 148.536865 63 63 63
123.000000 -9.000000 148.536865 64 64 64
124.000000 -9.000000 148.891357 64 64 64
125.000000 -9.000000 149.954880 63 63 63
126.000000 -9.000000 149.600372 60 60 60
127.000000 -9.000000 149.600372 48 48 48
128.000000 -9.000000 148.891357 34 34 34
129.000000 -9.000000 149.245865 31 31 31
130.000000 -9.000000 149.245865 32 32 32
131.000000 -9.000000 148.536865 42 42 42
132.000000 -9.000000 147.473343 56 56 56
133.000000 -9.000000 146.055344 60 60 60
134.000000 -9.000000 145.700836 61 61 61
135.000000 -9.000000 146.409836 61 61 61
136.000000 -9.000000 146.055344 60 60 60
137.000000 -9.000000 352.730713 59 59 59
141.000000 -9.000000 136.483749 59 59 59
142.000000 -9.000000 136.129242 58 58 58
145.000000 -9.000000 152.436401 57 57 57
146.000000 -9.000000 152.790894 57 57 57
147.000000 -9.000000 155.272415 56 56 56
149.000000 -9.000000 157.044937 54 54 54
150.000000 -9.000000 157.044937 54 54 54
151.000000 -9.000000 157.399445 54 54 54
154.000000 -9.000000 107.059982 17 17 17
155.000000 -9.000000 107.768990 22 22 22
156.000000 -9.000000 109.186996 34 34 34
66.000000 -10.000000 141.801300 11 11 11
67.000000 -10.000000 142.155807 18 18 18
68.000000 -10.000000 142.864807 11 11 11
69.000000 -10.000000 141.446793 15 15 15
70.000000 -10.000000 140.737793 43 43 43
71.000000 -10.000000 140.737793 58 58 58
72.000000 -10.000000 139.319778 59 59 59
73.000000 -10.000000 140.028778 60 60 60
74.000000 -10.000000 139.674271 60 60 60
82.000000 -10.000000 140.737793 62 62 62
83.000000 -10.000000 140.737793 61 61 61
84.000000 -10.000000 141.446793 61 61 61
85.000000 -10.000000 141.801300 61 61 61
86.000000 -10.000000 140.737793 52 52 52
87.000000 -10.000000 140.737793 35 35 35
88.000000 -10.000000 140.028778 30 30 30
89.000000 -10.000000 140.383286 32 32 32
90.000000 -10.000000 140.028778 45 45 45
91.000000 -10.000000 140.028778 59 59 59
92.000000 -10.000000 139.319778 63 63 63
93.000000 -10.000000 139.319778 62 62 62
94.000000 -10.000000 139.674271 63 63 63
96.000000 -10.000000 24.815228 63 63 63
97.000000 -10.000000 25.169731 63 63 63
98.000000 -10.000000 25.878736 63 63 63
99.000000 -10.000000 26.587744 63 63 63
100.000000 -10.000000 30.487280 63 63 63
118.000000 -10.000000 175.124603 65 65 65
122.000000 -10.000000 148.536865 64 64 64
123.000000 -10.000000 148.891357 64 64 64
124.000000 -10.000000 149.245865 64 64 64
125.000000 -10.000000 149.954880 63 63 63
126.000000 -10.000000 149.600372 63 63 63
127.000000 -10.000000 149.600372 59 59 59
128.000000 -10.000000 148.891357 50 50 50
129.000000 -10.000000 148.891357 45 45 45
130.000000 -10.000000 148.891357 47 47 47
131.000000 -10.000000 148.182358 55 55 55
132.000000 -10.000000 147.118851 60 60 60
133.000000 -10.000000 145.700836 60 60 60
134.000000 -10.000000 145.346329 61 61 61
135.000000 -10.000000 145.700836 61 61 61
136.000000 -10.000000 145.700836 61 61 61
137.000000 -10.000000 353.439728 59 59 59
141.000000 -10.000000 137.547256 59 59 59
142.000000 -10.000000 136.129242 58 58 58
145.000000 -10.000000 152.790894 57 57 57
146.000000 -10.000000 153.854401 57 57 57
147.000000 -10.000000 155.626923 56 56 56
149.000000 -10.000000 157.399445 55 55 55
150.000000 -10.000000 157.399445 54 54 54
151.000000 -10.000000 157.399445 54 54 54
152.000000 -10.000000 154.563416 52 52 52
153.000000 -10.000000 152.436401 38 38 38
154.000000 -10.000000 107.059982 18 18 18
155.000000 -10.000000 107.059982 31 31 31
156.000000 -10.000000 108.832497 40 40 40
66.000000 -11.000000 141.801300 9 9 9
67.000000 -11.000000 141.446793 17 17 17
68.000000 -11.000000 142.510300 11 11 11
69.000000 -11.000000 141.092285 15 15 15
70.000000 -11.000000 140.383286 43 43 43
71.000000 -11.000000 140.383286 57 57 57
72.000000 -11.000000 139.319778 59 59 59
73.000000 -11.000000 140.028778 60 60 60
74.000000 -11.000000 140.028778 61 61 61
82.000000 -11.000000 141.092285 63 63 63
83.000000 -11.000000 141.092285 62 62 62
84.000000 -11.000000 141.801300 62 62 62
85.000000 -11.000000 142.155807 62 62 62
86.000000 -11.000000 140.737793 59 59 59
87.000000 -11.000000 140.737793 50 50 50
88.000000 -11.000000 140.028778 44 44 44
89.000000 -11.000000 140.383286 49 49 49
90.000000 -11.000000 140.028778 58 58 58
91.000000 -11.000000 140.028778 62 62 62
92.000000 -11.000000 139.319778 63 63 63
93.000000 -11.000000 138.965271 62 62 62
94.000000 -11.000000 139.319778 63 63 63
95.000000 -11.000000 223.337051 63 63 63
97.000000 -11.000000 25.169731 63 63 63
98.000000 -11.000000 25.878736 63 63 63
99.000000 -11.000000 25.878736 63 63 63
100.000000 -11.000000 30.132776 63 63 63
109.000000 -11.000000 128.330170 65 65 65
121.000000 -11.000000 148.891357 63 63 63
122.000000 -11.000000 149.245865 64 64 64
123.000000 -11.000000 149.245865 65 65 65
124.000000 -11.000000 149.600372 65 65 65
125.000000 -11.000000 150.309372 64 64 64
126.000000 -11.000000 149.954880 63 63 63
127.000000 -11.000000 149.600372 63 63 63
128.000000 -11.000000 149.245865 61 61 61
129.000000 -11.000000 148.891357 60 60 60
130.000000 -11.000000 148.536865 60 60 60
131.000000 -11.000000 148.182358 61 61 61
132.000000 -11.000000 146.764343 61 61 61
133.000000 -11.000000 144.991821 61 61 61
134.000000 -11.000000 145.346329 61 61 61
135.000000 -11.000000 145.700836 61 61 61
141.000000 -11.000000 138.610764 59 59 59
142.000000 -11.000000 136.129242 59 59 59
143.000000 -11.000000 135.065735 59 59 59
145.000000 -11.000000 152.436401 57 57 57
146.000000 -11.000000 153.854401 57 57 57
147.000000 -11.000000 155.626923 56 56 56
149.000000 -11.000000 157.044937 55 55 55
150.000000 -11.000000 157.044937 54 54 54
151.000000 -11.000000 157.399445 54 54 54
152.000000 -11.000000 154.208908 53 53 53
153.000000 -11.000000 152.436401 37 37 37
154.000000 -11.000000 106.705475 18 18 18
155.000000 -11.000000 106.705475 32 32 32
156.000000 -11.000000 107.768990 41 41 41
67.000000 -12.000000 140.737793 15 15 15
68.000000 -12.000000 141.801300 10 10 10
69.000000 -12.000000 140.028778 15 15 15
70.000000 -12.000000 139.674271 44 44 44
71.000000 -12.000000 140.028778 58 58 58
72.000000 -12.000000 139.319778 60 60 60
73.000000 -12.000000 139.674271 61 61 61
74.000000 -12.000000 139.674271 61 61 61
78.000000 -12.000000 145.700836 61 61 61
79.000000 -12.000000 146.055344 61 61 61
81.000000 -12.000000 144.991821 63 63 63
82.000000 -12.000000 141.801300 63 63 63
83.000000 -12.000000 141.446793 63 63 63
84.000000 -12.000000 141.801300 63 63 63
85.000000 -12.000000 141.801300 63 63 63
86.000000 -12.000000 140.737793 62 62 62
87.000000 -12.000000 140.383286 61 61 61
88.000000 -12.000000 140.028778 61 61 61
89.000000 -12.000000 140.383286 62 62 62
90.000000 -12.000000 140.028778 63 63 63
91.000000 -12.000000 139.674271 63 63 63
92.000000 -12.000000 139.319778 63 63 63
93.000000 -12.000000 138.610764 63 63 63
95.000000 -12.000000 222.982544 63 63 63
97.000000 -12.000000 24.460724 64 64 64
98.000000 -12.000000 24.815228 64 64 64
99.000000 -12.000000 25.169731 63 63 63
103.000000 -12.000000 73.736671 63 63 63
104.000000 -12.000000 75.863693 64 64 64
105.000000 -12.000000 74.800186 64 64 64
119.000000 -12.000000 175.124603 64 64 64
124.000000 -12.000000 149.600372 63 63 63
125.000000 -12.000000 149.954880 63 63 63
126.000000 -12.000000 149.954880 62 62 62
127.000000 -12.000000 149.600372 61 61 61
128.000000 -12.000000 149.600372 61 61 61
129.000000 -12.000000 148.536865 60 60 60
130.000000 -12.000000 148.182358 60 60 60
131.000000 -12.000000 147.827850 59 59 59
132.000000 -12.000000 146.409836 59 59 59
133.000000 -12.000000 144.282822 58 58 58
134.000000 -12.000000 144.991821 58 58 58
135.000000 -12.000000 145.346329 58 58 58
140.000000 -12.000000 137.901764 55 55 55
141.000000 -12.000000 139.319778 55 55 55
142.000000 -12.000000 136.838257 55 55 55
143.000000 -12.000000 135.420242 54 54 54
145.000000 -12.000000 152.081894 52 52 52
146.000000 -12.000000 152.790894 52 52 52
147.000000 -12.000000 155.626923 50 50 50
149.000000 -12.000000 156.335938 50 50 50
150.000000 -12.000000 156.690430 49 49 49
151.000000 -12.000000 156.690430 49 49 49
152.000000 -12.000000 153.499908 48 48 48
153.000000 -12.000000 152.081894 34 34 34
154.000000 -12.000000 106.350975 17 17 17
155.000000 -12.000000 106.705475 25 25 25
156.000000 -12.000000 107.059982 36 36 36
68.000000 -13.000000 140.737793 10 10 10
69.000000 -13.000000 139.319778 16 16 16
70.000000 -13.000000 139.319778 44 44 44
71.000000 -13.000000 139.319778 58 58 58
72.000000 -13.000000 138.965271 60 60 60
73.000000 -13.000000 139.319778 61 61 61
74.000000 -13.000000 139.319778 62 62 62
82.000000 -13.000000 142.155807 62 62 62
83.000000 -13.000000 141.092285 62 62 62
84.000000 -13.000000 141.446793 63 63 63
85.000000 -13.000000 141.092285 62 62 62
86.000000 -13.000000 140.383286 62 62 62
87.000000 -13.000000 140.383286 61 61 61
88.000000 -13.000000 140.028778 62 62 62
89.000000 -13.000000 140.028778 62 62 62
90.000000 -13.000000 139.674271 62 62 62
91.000000 -13.000000 139.319778 62 62 62
92.000000 -13.000000 138.965271 62 62 62
93.000000 -13.000000 137.901764 62 62 62
95.000000 -13.000000 222.628036 63 63 63
97.000000 -13.000000 24.106220 63 63 63
98.000000 -13.000000 24.460724 63 63 63
99.000000 -13.000000 24.460724 63 63 63
102.000000 -13.000000 75.154686 63 63 63
103.000000 -13.000000 75.154686 63 63 63
104.000000 -13.000000 76.927200 63 63 63
105.000000 -13.000000 76.572701 63 63 63
106.000000 -13.000000 76.218201 64 64 64
115.000000 -13.000000 140.028778 64 64 64
116.000000 -13.000000 140.028778 65 65 65
125.000000 -13.000000 150.309372 68 68 68
126.000000 -13.000000 150.309372 68 68 68
127.000000 -13.000000 150.309372 67 67 67
128.000000 -13.000000 149.954880 68 68 68
129.000000 -13.000000 148.891357 67 67 67
130.000000 -13.000000 147.827850 67 67 67
131.000000 -13.000000 147.473343 69 69 69
133.000000 -13.000000 143.573807 68 68 68
134.000000 -13.000000 144.282822 68 68 68
141.000000 -13.000000 139.319778 72 72 72
143.000000 -13.000000 136.483749 73 73 73
144.000000 -13.000000 138.610764 73 73 73
146.000000 -13.000000 151.727386 74 74 74
147.000000 -13.000000 155.626923 74 74 74
149.000000 -13.000000 155.981430 74 74 74
150.000000 -13.000000 155.981430 74 74 74
151.000000 -13.000000 155.981430 76 76 76
152.000000 -13.000000 152.790894 74 74 74
153.000000 -13.000000 151.727386 45 45 45
154.000000 -13.000000 105.996468 17 17 17
155.000000 -13.000000 106.350975 24 24 24
156.000000 -13.000000 106.350975 35 35 35
66.000000 -14.000000 126.203156 8 8 8
68.000000 -14.000000 139.674271 11 11 11
69.000000 -14.000000 138.256271 20 20 20
70.000000 -14.000000 138.610764 58 58 58
71.000000 -14.000000 138.965271 77 77 77
72.000000 -14.000000 138.610764 80 80 80
73.000000 -14.000000 138.965271 81 81 81
74.000000 -14.000000 138.965271 82 82 82
83.000000 -14.000000 140.737793 91 91 91
84.000000 -14.000000 140.737793 93 93 93
85.000000 -14.000000 140.383286 94 94 94
86.000000 -14.000000 140.028778 95 95 95
87.000000 -14.000000 139.674271 96 96 96
88.000000 -14.000000 139.674271 95 95 95
89.000000 -14.000000 139.674271 97 97 97
90.000000 -14.000000 139.319778 98 98 98
92.000000 -14.000000 138.965271 101 101 101
93.000000 -14.000000 138.256271 103 103 103
97.000000 -14.000000 24.106220 109 109 109
98.000000 -14.000000 24.460724 110 110 110
99.000000 -14.000000 24.106220 111 111 111
102.000000 -14.000000 75.863693 114 114 114
103.000000 -14.000000 76.218201 115 115 115
104.000000 -14.000000 77.636208 115 115 115
105.000000 -14.000000 77.281708 116 116 116
113.000000 -14.000000 138.256271 129 129 129
114.000000 -14.000000 138.965271 129 129 129
115.000000 -14.000000 140.028778 129 129 129
116.000000 -14.000000 140.028778 131 131 131
132.000000 -14.000000 119.113091 143 143 143
135.000000 -14.000000 119.113091 143 143 143
136.000000 -14.000000 121.240112 144 144 144
137.000000 -14.000000 121.594612 145 145 145
141.000000 -14.000000 139.319778 145 145 145
143.000000 -14.000000 136.838257 144 144 144
144.000000 -14.000000 138.610764 144 144 144
146.000000 -14.000000 151.727386 143 143 143
147.000000 -14.000000 155.626923 143 143 143
148.000000 -14.000000 155.626923 142 142 142
149.000000 -14.000000 155.626923 141 141 141
150.000000 -14.000000 155.626923 141 141 141
151.000000 -14.000000 155.981430 141 141 141
152.000000 -14.000000 152.436401 135 135 135
153.000000 -14.000000 151.727386 76 76 76
155.000000 -14.000000 105.996468 25 25 25
156.000000 -14.000000 105.996468 36 36 36
66.000000 -15.000000 126.912163 8 8 8
67.000000 -15.000000 132.584213 14 14 14
68.000000 -15.000000 138.256271 12 12 12
69.000000 -15.000000 136.838257 31 31 31
70.000000 -15.000000 137.901764 110 110 110
71.000000 -15.000000 137.901764 147 147 147
72.000000 -15.000000 138.256271 150 150 150
73.000000 -15.000000 138.610764 150 150 150
74.000000 -15.000000 138.610764 151 151 151
83.000000 -15.000000 140.028778 162 162 162
84.000000 -15.000000 139.319778 163 163 163
86.000000 -15.000000 139.674271 163 163 163
87.000000 -15.000000 139.319778 163 163 163
88.000000 -15.000000 139.319778 163 163 163
89.000000 -15.000000 139.674271 166 166 166
102.000000 -15.000000 75.863693 174 174 174
103.000000 -15.000000 76.572701 174 174 174
104.000000 -15.000000 77.636208 174 174 174
105.000000 -15.000000 77.281708 174 174 174
113.000000 -15.000000 138.256271 178 178 178
115.000000 -15.000000 140.383286 177 177 177
125.000000 -15.000000 57.784027 175 175 175
135.000000 -15.000000 118.758583 168 168 168
136.000000 -15.000000 121.240112 167 167 167
137.000000 -15.000000 120.885605 167 167 167
141.000000 -15.000000 140.028778 164 164 164
143.000000 -15.000000 136.838257 161 161 161
144.000000 -15.000000 138.965271 161 161 161
146.000000 -15.000000 153.145401 159 159 159
147.000000 -15.000000 155.981430 157 157 157
148.000000 -15.000000 155.272415 156 156 156
149.000000 -15.000000 155.272415 155 155 155
150.000000 -15.000000 155.272415 153 153 153
151.000000 -15.000000 155.626923 152 152 152
152.000000 -15.000000 152.436401 144 144 144
153.000000 -15.000000 151.372879 78 78 78
155.000000 -15.000000 105.996468 26 26 26
66.000000 -16.000000 127.266663 9 9 9
67.000000 -16.000000 131.875214 15 15 15
68.000000 -16.000000 136.483749 12 12 12
69.000000 -16.000000 135.420242 37 37 37
70.000000 -16.000000 136.838257 130 130 130
71.000000 -16.000000 137.192749 170 170 170
72.000000 -16.000000 137.901764 172 172 172
73.000000 -16.000000 138.256271 173 173 173
74.000000 -16.000000 138.256271 172 172 172
83.000000 -16.000000 139.319778 177 177 177
85.000000 -16.000000 138.965271 177 177 177
86.000000 -16.000000 139.674271 176 176 176
87.000000 -16.000000 139.319778 174 174 174
88.000000 -16.000000 139.674271 175 175 175
89.000000 -16.000000 140.028778 178 178 178
97.000000 -16.000000 140.028778 179 179 179
102.000000 -16.000000 76.218201 181 181 181
103.000000 -16.000000 76.927200 180 180 180
104.000000 -16.000000 77.990715 180 180 180
105.000000 -16.000000 77.281708 180 180 180
107.000000 -16.000000 188.595718 179 179 179
117.000000 -16.000000 71.609657 180 180 180
118.000000 -16.000000 74.800186 180 180 180
124.000000 -16.000000 56.011513 176 176 176
125.000000 -16.000000 57.429527 175 175 175
129.000000 -16.000000 83.308266 173 173 173
133.000000 -16.000000 96.779388 170 170 170
135.000000 -16.000000 119.113091 168 168 168
143.000000 -16.000000 137.192749 161 161 161
144.000000 -16.000000 138.965271 161 161 161
146.000000 -16.000000 153.499908 160 160 160
147.000000 -16.000000 155.981430 158 158 158
148.000000 -16.000000 154.917923 156 156 156
149.000000 -16.000000 154.563416 155 155 155
150.000000 -16.000000 154.917923 153 153 153
151.000000 -16.000000 155.626923 152 152 152
152.000000 -16.000000 152.081894 143 143 143
153.000000 -16.000000 151.372879 75 75 75
154.000000 -16.000000 150.309372 21 21 21
155.000000 -16.000000 105.996468 26 26 26
66.000000 -17.000000 127.621170 9 9 9
67.000000 -17.000000 131.520706 15 15 15
68.000000 -17.000000 134.711227 13 13 13
69.000000 -17.000000 134.356735 38 38 38
70.000000 -17.000000 135.774750 131 131 131
71.000000 -17.000000 136.129242 169 169 169
72.000000 -17.000000 137.547256 171 171 171
73.000000 -17.000000 137.547256 172 172 172
74.000000 -17.000000 137.901764 173 173 173
76.000000 -17.000000 116.277061 175 175 175
78.000000 -17.000000 118.049583 175 175 175
85.000000 -17.000000 138.965271 176 176 176
86.000000 -17.000000 140.028778 176 176 176
87.000000 -17.000000 140.028778 175 175 175
88.000000 -17.000000 140.383286 176 176 176
89.000000 -17.000000 140.383286 178 178 178
90.000000 -17.000000 140.383286 178 178 178
91.000000 -17.000000 140.028778 179 179 179
92.000000 -17.000000 140.737793 180 180 180
95.000000 -17.000000 114.150047 180 180 180
96.000000 -17.000000 113.795540 180 180 180
100.000000 -17.000000 158.817459 181 181 181
101.000000 -17.000000 160.235474 181 181 181
104.000000 -17.000000 77.990715 182 182 182
105.000000 -17.000000 77.281708 181 181 181
113.000000 -17.000000 36.868336 180 180 180
114.000000 -17.000000 38.286350 180 180 180
123.000000 -17.000000 54.593498 176 176 176
124.000000 -17.000000 55.657009 175 175 175
125.000000 -17.000000 56.720520 175 175 175
129.000000 -17.000000 83.308266 173 173 173
130.000000 -17.000000 84.371773 173 173 173
131.000000 -17.000000 83.662766 172 172 172
132.000000 -17.000000 84.371773 170 170 170
133.000000 -17.000000 97.133888 170 170 170
139.000000 -17.000000 117.695076 165 165 165
140.000000 -17.000000 119.822098 164 164 164
143.000000 -17.000000 137.901764 161 161 161
146.000000 -17.000000 154.208908 159 159 159
147.000000 -17.000000 157.044937 157 157 157
148.000000 -17.000000 154.208908 155 155 155
149.000000 -17.000000 153.854401 155 155 155
150.000000 -17.000000 154.208908 153 153 153
151.000000 -17.000000 155.272415 152 152 152
152.000000 -17.000000 151.727386 141 141 141
153.000000 -17.000000 151.372879 72 72 72
154.000000 -17.000000 150.309372 21 21 21
155.000000 -17.000000 106.350975 26 26 26
66.000000 -18.000000 127.621170 9 9 9
67.000000 -18.000000 131.166199 16 16 16
68.000000 -18.000000 134.356735 14 14 14
69.000000 -18.000000 134.002228 38 38 38
70.000000 -18.000000 135.420242 130 130 130
71.000000 -18.000000 136.129242 169 169 169
72.000000 -18.000000 137.192749 170 170 170
73.000000 -18.000000 137.547256 171 171 171
74.000000 -18.000000 137.547256 172 172 172
75.000000 -18.000000 115.922562 174 174 174
76.000000 -18.000000 115.922562 174 174 174
78.000000 -18.000000 117.695076 174 174 174
83.000000 -18.000000 138.965271 176 176 176
84.000000 -18.000000 138.965271 176 176 176
85.000000 -18.000000 138.965271 176 176 176
86.000000 -18.000000 140.028778 176 176 176
87.000000 -18.000000 140.028778 175 175 175
88.000000 -18.000000 140.383286 176 176 176
89.000000 -18.000000 140.383286 176 176 176
90.000000 -18.000000 140.737793 177 177 177
91.000000 -18.000000 140.383286 179 179 179
92.000000 -18.000000 141.092285 180 180 180
93.000000 -18.000000 140.383286 180 180 180
94.000000 -18.000000 140.028778 179 179 179
96.000000 -18.000000 113.795540 179 179 179
101.000000 -18.000000 159.526459 180 180 180
104.000000 -18.000000 77.636208 181 181 181
105.000000 -18.000000 76.927200 182 182 182
113.000000 -18.000000 37.222839 179 179 179
114.000000 -18.000000 38.286350 179 179 179
117.000000 -18.000000 70.900650 179 179 179
118.000000 -18.000000 75.154686 180 180 180
123.000000 -18.000000 54.238995 175 175 175
124.000000 -18.000000 55.302505 176 176 176
125.000000 -18.000000 56.366016 176 176 176
128.000000 -18.000000 82.953758 173 173 173
129.000000 -18.000000 83.308266 173 173 173
130.000000 -18.000000 84.017265 173 173 173
131.000000 -18.000000 83.662766 172 172 172
132.000000 -18.000000 83.662766 171 171 171
138.000000 -18.000000 118.758583 166 166 166
139.000000 -18.000000 118.404083 165 165 165
140.000000 -18.000000 120.885605 164 164 164
143.000000 -18.000000 138.256271 161 161 161
147.000000 -18.000000 157.753937 156 156 156
148.000000 -18.000000 153.854401 155 155 155
149.000000 -18.000000 153.499908 154 154 154
150.000000 -18.000000 153.854401 153 153 153
151.000000 -18.000000 155.272415 152 152 152
152.000000 -18.000000 151.727386 139 139 139
153.000000 -18.000000 151.018387 69 69 69
154.000000 -18.000000 150.663879 22 22 22
66.000000 -19.000000 128.330170 9 9 9
67.000000 -19.000000 131.520706 15 15 15
68.000000 -19.000000 134.002228 15 15 15
69.000000 -19.000000 133.647720 39 39 39
70.000000 -19.000000 135.065735 131 131 131
71.000000 -19.000000 136.129242 169 169 169
72.000000 -19.000000 137.547256 171 171 171
73.000000 -19.000000 137.547256 170 170 170
74.000000 -19.000000 137.547256 171 171 171
75.000000 -19.000000 116.277061 172 172 172
83.000000 -19.000000 138.256271 176 176 176
84.000000 -19.000000 138.610764 176 176 176
85.000000 -19.000000 139.674271 176 176 176
86.000000 -19.000000 139.674271 176 176 176
87.000000 -19.000000 139.674271 175 175 175
88.000000 -19.000000 140.028778 175 175 175
89.000000 -19.000000 140.383286 175 175 175
90.000000 -19.000000 140.737793 175 175 175
91.000000 -19.000000 140.737793 177 177 177
92.000000 -19.000000 140.737793 179 179 179
93.000000 -19.000000 140.737793 178 178 178
94.000000 -19.000000 140.737793 177 177 177
100.000000 -19.000000 158.462952 180 180 180
101.000000 -19.000000 158.817459 180 180 180
115.000000 -19.000000 38.286350 179 179 179
116.000000 -19.000000 40.058868 179 179 179
118.000000 -19.000000 41.122375 179 179 179
119.000000 -19.000000 42.540390 178 178 178
123.000000 -19.000000 54.593498 177 177 177
126.000000 -19.000000 147.827850 175 175 175
131.000000 -19.000000 83.308266 172 172 172
138.000000 -19.000000 118.404083 165 165 165
139.000000 -19.000000 118.758583 165 165 165
140.000000 -19.000000 121.240112 164 164 164
143.000000 -19.000000 138.256271 161 161 161
147.000000 -19.000000 158.817459 156 156 156
148.000000 -19.000000 154.563416 155 155 155
149.000000 -19.000000 154.208908 154 154 154
150.000000 -19.000000 154.563416 152 152 152
151.000000 -19.000000 155.626923 151 151 151
152.000000 -19.000000 151.727386 137 137 137
153.000000 -19.000000 151.018387 67 67 67
154.000000 -19.000000 150.663879 22 22 22
156.000000 -19.000000 112.023026 27 27 27
66.000000 -20.000000 128.684677 8 8 8
67.000000 -20.000000 131.520706 15 15 15
68.000000 -20.000000 133.647720 16 16 16
69.000000 -20.000000 133.647720 40 40 40
70.000000 -20.000000 134.711227 132 132 132
71.000000 -20.000000 136.129242 169 169 169
72.000000 -20.000000 137.547256 170 170 170
73.000000 -20.000000 137.547256 170 170 170
74.000000 -20.000000 137.547256 172 172 172
82.000000 -20.000000 139.674271 175 175 175
83.000000 -20.000000 138.256271 174 174 174
84.000000 -20.000000 138.610764 175 175 175
85.000000 -20.000000 140.737793 175 175 175
86.000000 -20.000000 140.028778 176 176 176
87.000000 -20.000000 140.028778 175 175 175
88.000000 -20.000000 140.383286 174 174 174
89.000000 -20.000000 141.092285 173 173 173
90.000000 -20.000000 141.446793 174 174 174
91.000000 -20.000000 141.446793 175 175 175
92.000000 -20.000000 140.383286 176 176 176
93.000000 -20.000000 141.446793 178 178 178
94.000000 -20.000000 141.446793 178 178 178
95.000000 -20.000000 141.092285 178 178 178
101.000000 -20.000000 158.817459 179 179 179
104.000000 -20.000000 57.784027 179 179 179
118.000000 -20.000000 41.476879 179 179 179
119.000000 -20.000000 42.894894 178 178 178
124.000000 -20.000000 146.764343 177 177 177
125.000000 -20.000000 148.891357 176 176 176
126.000000 -20.000000 148.182358 175 175 175
127.000000 -20.000000 147.827850 174 174 174
128.000000 -20.000000 148.536865 174 174 174
129.000000 -20.000000 148.891357 173 173 173
130.000000 -20.000000 148.891357 173 173 173
131.000000 -20.000000 149.600372 173 173 173
136.000000 -20.000000 100.324417 168 168 168
137.000000 -20.000000 104.223953 167 167 167
138.000000 -20.000000 118.049583 165 165 165
139.000000 -20.000000 118.758583 164 164 164
140.000000 -20.000000 121.240112 163 163 163
142.000000 -20.000000 135.774750 161 161 161
143.000000 -20.000000 138.256271 161 161 161
144.000000 -20.000000 143.219315 160 160 160
146.000000 -20.000000 158.817459 158 158 158
147.000000 -20.000000 160.235474 156 156 156
148.000000 -20.000000 155.272415 155 155 155
149.000000 -20.000000 154.917923 153 153 153
150.000000 -20.000000 155.272415 151 151 151
151.000000 -20.000000 155.626923 150 150 150
152.000000 -20.000000 151.727386 136 136 136
153.000000 -20.000000 151.372879 64 64 64
154.000000 -20.000000 150.663879 22 22 22
156.000000 -20.000000 112.023026 28 28 28
66.000000 -21.000000 129.039185 8 8 8
67.000000 -21.000000 131.520706 14 14 14
68.000000 -21.000000 133.293213 16 16 16
69.000000 -21.000000 133.647720 40 40 40
70.000000 -21.000000 134.711227 131 131 131
71.000000 -21.000000 136.129242 168 168 168
72.000000 -21.000000 137.547256 170 170 170
73.000000 -21.000000 137.547256 171 171 171
74.000000 -21.000000 137.547256 171 171 171
80.000000 -21.000000 18.079666 173 173 173
82.000000 -21.000000 139.674271 174 174 174
83.000000 -21.000000 138.256271 175 175 175
84.000000 -21.000000 138.965271 175 175 175
85.000000 -21.000000 141.801300 175 175 175
86.000000 -21.000000 140.383286 175 175 175
87.000000 -21.000000 140.383286 173 173 173
88.000000 -21.000000 140.737793 172 172 172
89.000000 -21.000000 141.446793 172 172 172
90.000000 -21.000000 142.155807 172 172 172
91.000000 -21.000000 142.155807 173 173 173
92.000000 -21.000000 140.383286 174 174 174
93.000000 -21.000000 142.155807 176 176 176
94.000000 -21.000000 142.864807 177 177 177
95.000000 -21.000000 142.155807 178 178 178
110.000000 -21.000000 187.886719 178 178 178
111.000000 -21.000000 186.468704 178 178 178
112.000000 -21.000000 187.532211 179 179 179
113.000000 -21.000000 188.595718 180 180 180
114.000000 -21.000000 189.304733 179 179 179
118.000000 -21.000000 42.185886 177 177 177
119.000000 -21.000000 44.312904 177 177 177
124.000000 -21.000000 148.182358 176 176 176
125.000000 -21.000000 149.600372 175 175 175
126.000000 -21.000000 148.536865 174 174 174
127.000000 -21.000000 148.536865 173 173 173
128.000000 -21.000000 148.891357 174 174 174
129.000000 -21.000000 148.891357 173 173 173
130.000000 -21.000000 148.536865 173 173 173
131.000000 -21.000000 148.891357 172 172 172
132.000000 -21.000000 147.827850 171 171 171
133.000000 -21.000000 148.891357 171 171 171
136.000000 -21.000000 99.969917 167 167 167
137.000000 -21.000000 104.223953 167 167 167
138.000000 -21.000000 117.340576 165 165 165
139.000000 -21.000000 118.049583 163 163 163
140.000000 -21.000000 121.240112 162 162 162
142.000000 -21.000000 137.192749 160 160 160
143.000000 -21.000000 138.610764 160 160 160
144.000000 -21.000000 143.928314 159 159 159
145.000000 -21.000000 158.108444 157 157 157
146.000000 -21.000000 158.462952 156 156 156
148.000000 -21.000000 155.626923 155 155 155
149.000000 -21.000000 155.272415 153 153 153
150.000000 -21.000000 155.981430 151 151 151
151.000000 -21.000000 155.981430 149 149 149
152.000000 -21.000000 151.727386 135 135 135
153.000000 -21.000000 151.372879 63 63 63
156.000000 -21.000000 112.023026 31 31 31
66.000000 -22.000000 128.330170 7 7 7
67.000000 -22.000000 130.811691 12 12 12
68.000000 -22.000000 132.938721 15 15 15
69.000000 -22.000000 133.293213 40 40 40
70.000000 -22.000000 134.356735 129 129 129
71.000000 -22.000000 135.774750 167 167 167
72.000000 -22.000000 137.547256 169 169 169
73.000000 -22.000000 137.547256 170 170 170
74.000000 -22.000000 137.192749 170 170 170
77.000000 -22.000000 17.725163 173 173 173
80.000000 -22.000000 16.307150 173 173 173
82.000000 -22.000000 139.319778 173 173 173
83.000000 -22.000000 138.610764 174 174 174
84.000000 -22.000000 138.965271 174 174 174
85.000000 -22.000000 142.510300 173 173 173
86.000000 -22.000000 140.737793 172 172 172
87.000000 -22.000000 140.737793 170 170 170
88.000000 -22.000000 140.737793 168 168 168
89.000000 -22.000000 141.801300 167 167 167
90.000000 -22.000000 142.510300 169 169 169
91.000000 -22.000000 142.510300 171 171 171
92.000000 -22.000000 140.383286 172 172 172
93.000000 -22.000000 142.864807 174 174 174
94.000000 -22.000000 143.573807 176 176 176
95.000000 -22.000000 143.219315 177 177 177
104.000000 -22.000000 140.383286 178 178 178
105.000000 -22.000000 140.028778 178 178 178
108.000000 -22.000000 140.737793 177 177 177
110.000000 -22.000000 185.405197 177 177 177
111.000000 -22.000000 184.696198 177 177 177
112.000000 -22.000000 186.468704 178 178 178
113.000000 -22.000000 187.886719 179 179 179
114.000000 -22.000000 188.950226 178 178 178
116.000000 -22.000000 28.005756 177 177 177
117.000000 -22.000000 29.069265 176 176 176
119.000000 -22.000000 47.148930 175 175 175
122.000000 -22.000000 147.118851 175 175 175
123.000000 -22.000000 149.245865 175 175 175
124.000000 -22.000000 149.245865 176 176 176
125.000000 -22.000000 149.954880 176 176 176
126.000000 -22.000000 149.245865 175 175 175
127.000000 -22.000000 148.891357 174 174 174
128.000000 -22.000000 149.245865 177 177 177
129.000000 -22.000000 149.600372 178 178 178
130.000000 -22.000000 149.245865 175 175 175
131.000000 -22.000000 148.891357 171 171 171
132.000000 -22.000000 148.182358 170 170 170
133.000000 -22.000000 148.891357 169 169 169
134.000000 -22.000000 148.536865 168 168 168
136.000000 -22.000000 101.387924 166 166 166
137.000000 -22.000000 104.932961 165 165 165
139.000000 -22.000000 117.695076 163 163 163
140.000000 -22.000000 121.594612 162 162 162
142.000000 -22.000000 137.901764 160 160 160
143.000000 -22.000000 138.965271 159 159 159
144.000000 -22.000000 144.282822 158 158 158
145.000000 -22.000000 158.108444 157 157 157
146.000000 -22.000000 160.589966 155 155 155
148.000000 -22.000000 155.981430 155 155 155
149.000000 -22.000000 155.626923 153 153 153
150.000000 -22.000000 156.335938 151 151 151
151.000000 -22.000000 155.981430 149 149 149
152.000000 -22.000000 151.727386 133 133 133
153.000000 -22.000000 151.372879 60 60 60
66.000000 -23.000000 127.621170 7 7 7
67.000000 -23.000000 129.393677 12 12 12
68.000000 -23.000000 132.229706 15 15 15
69.000000 -23.000000 131.520706 41 41 41
70.000000 -23.000000 134.002228 129 129 129
71.000000 -23.000000 135.420242 166 166 166
72.000000 -23.000000 137.192749 168 168 168
73.000000 -23.000000 137.192749 168 168 168
74.000000 -23.000000 136.838257 169 169 169
77.000000 -23.000000 15.243640 172 172 172
78.000000 -23.000000 15.243640 172 172 172
80.000000 -23.000000 14.889136 172 172 172
82.000000 -23.000000 138.965271 171 171 171
83.000000 -23.000000 138.256271 172 172 172
84.000000 -23.000000 138.965271 172 172 172
85.000000 -23.000000 142.510300 170 170 170
86.000000 -23.000000 140.737793 168 168 168
87.000000 -23.000000 140.737793 151 151 151
88.000000 -23.000000 140.737793 128 128 128
89.000000 -23.000000 141.801300 134 134 134
90.000000 -23.000000 142.510300 153 153 153
91.000000 -23.000000 142.510300 165 165 165
92.000000 -23.000000 140.383286 171 171 171
93.000000 -23.000000 143.219315 172 172 172
94.000000 -23.000000 143.928314 174 174 174
95.000000 -23.000000 143.573807 175 175 175
96.000000 -23.000000 141.801300 176 176 176
104.000000 -23.000000 140.383286 176 176 176
108.000000 -23.000000 141.092285 176 176 176
112.000000 -23.000000 186.468704 177 177 177
113.000000 -23.000000 188.950226 177 177 177
116.000000 -23.000000 27.651253 177 177 177
117.000000 -23.000000 28.005756 176 176 176
118.000000 -23.000000 28.714764 175 175 175
120.000000 -23.000000 153.854401 175 175 175
122.000000 -23.000000 147.473343 174 174 174
123.000000 -23.000000 148.891357 174 174 174
124.000000 -23.000000 149.245865 175 175 175
125.000000 -23.000000 149.600372 175 175 175
126.000000 -23.000000 148.891357 176 176 176
127.000000 -23.000000 148.891357 181 181 181
128.000000 -23.000000 148.891357 194 194 194
129.000000 -23.000000 149.245865 201 201 201
130.000000 -23.000000 149.245865 190 190 190
131.000000 -23.000000 148.891357 176 176 176
132.000000 -23.000000 148.891357 171 171 171
133.000000 -23.000000 149.600372 169 169 169
134.000000 -23.000000 149.600372 167 167 167
135.000000 -23.000000 150.309372 167 167 167
137.000000 -23.000000 105.996468 164 164 164
138.000000 -23.000000 110.250511 163 163 163
139.000000 -23.000000 116.277061 162 162 162
142.000000 -23.000000 137.901764 159 159 159
143.000000 -23.000000 139.319778 159 159 159
144.000000 -23.000000 144.637329 157 157 157
146.000000 -23.000000 162.007980 155 155 155
147.000000 -23.000000 163.780502 154 154 154
148.000000 -23.000000 156.335938 153 153 153
149.000000 -23.000000 156.335938 152 152 152
150.000000 -23.000000 156.335938 151 151 151
151.000000 -23.000000 156.335938 149 149 149
152.000000 -23.000000 151.727386 130 130 130
153.000000 -23.000000 151.372879 56 56 56
66.000000 -24.000000 357.339264 9 9 9
68.000000 -24.000000 130.102692 16 16 16
69.000000 -24.000000 128.684677 42 42 42
70.000000 -24.000000 133.293213 129 129 129
71.000000 -24.000000 135.065735 166 166 166
72.000000 -24.000000 137.192749 168 168 168
73.000000 -24.000000 137.192749 168 168 168
74.000000 -24.000000 136.838257 169 169 169
77.000000 -24.000000 14.889136 170 170 170
78.000000 -24.000000 14.889136 170 170 170
82.000000 -24.000000 138.610764 170 170 170
83.000000 -24.000000 138.256271 171 171 171
84.000000 -24.000000 138.965271 171 171 171
85.000000 -24.000000 142.864807 168 168 168
86.000000 -24.000000 140.737793 151 151 151
87.000000 -24.000000 140.737793 95 95 95
88.000000 -24.000000 140.737793 63 63 63
89.000000 -24.000000 141.801300 71 71 71
90.000000 -24.000000 142.510300 95 95 95
91.000000 -24.000000 142.510300 137 137 137
92.000000 -24.000000 140.028778 167 167 167
93.000000 -24.000000 143.219315 170 170 170
94.000000 -24.000000 143.573807 172 172 172
95.000000 -24.000000 143.219315 174 174 174
96.000000 -24.000000 142.155807 175 175 175
101.000000 -24.000000 121.240112 175 175 175
102.000000 -24.000000 122.658119 175 175 175
104.000000 -24.000000 140.383286 175 175 175
107.000000 -24.000000 139.319778 175 175 175
108.000000 -24.000000 141.092285 175 175 175
112.000000 -24.000000 185.405197 176 176 176
118.000000 -24.000000 28.714764 175 175 175
120.000000 -24.000000 152.790894 175 175 175
121.000000 -24.000000 149.600372 174 174 174
122.000000 -24.000000 147.827850 174 174 174
123.000000 -24.000000 148.891357 174 174 174
124.000000 -24.000000 149.245865 174 174 174
125.000000 -24.000000 149.600372 174 174 174
126.000000 -24.000000 149.245865 174 174 174
127.000000 -24.000000 148.891357 177 177 177
128.000000 -24.000000 148.536865 180 180 180
129.000000 -24.000000 149.245865 182 182 182
130.000000 -24.000000 149.600372 181 181 181
131.000000 -24.000000 149.245865 176 176 176
132.000000 -24.000000 148.536865 171 171 171
133.000000 -24.000000 149.245865 168 168 168
134.000000 -24.000000 150.309372 166 166 166
135.000000 -24.000000 150.663879 165 165 165
136.000000 -24.000000 151.372879 164 164 164
137.000000 -24.000000 105.996468 163 163 163
138.000000 -24.000000 110.250511 162 162 162
139.000000 -24.000000 116.277061 161 161 161
141.000000 -24.000000 133.647720 159 159 159
142.000000 -24.000000 135.774750 158 158 158
143.000000 -24.000000 138.965271 158 158 158
144.000000 -24.000000 145.346329 157 157 157
146.000000 -24.000000 155.981430 155 155 155
147.000000 -24.000000 161.653473 154 154 154
148.000000 -24.000000 156.335938 152 152 152
149.000000 -24.000000 156.335938 151 151 151
150.000000 -24.000000 156.690430 150 150 150
151.000000 -24.000000 156.335938 147 147 147
152.000000 -24.000000 151.727386 126 126 126
153.000000 -24.000000 151.372879 52 52 52
66.000000 -25.000000 357.339264 9 9 9
67.000000 -25.000000 357.339264 14 14 14
69.000000 -25.000000 10.280594 43 43 43
70.000000 -25.000000 14.889136 129 129 129
71.000000 -25.000000 134.356735 165 165 165
72.000000 -25.000000 135.774750 167 167 167
73.000000 -25.000000 136.838257 168 168 168
74.000000 -25.000000 136.483749 168 168 168
77.000000 -25.000000 15.243640 170 170 170
78.000000 -25.000000 14.889136 169 169 169
82.000000 -25.000000 138.965271 169 169 169
83.000000 -25.000000 138.256271 169 169 169
84.000000 -25.000000 138.965271 169 169 169
85.000000 -25.000000 142.864807 165 165 165
86.000000 -25.000000 140.737793 126 126 126
87.000000 -25.000000 140.737793 56 56 56
88.000000 -25.000000 140.737793 40 40 40
89.000000 -25.000000 141.801300 42 42 42
90.000000 -25.000000 142.510300 52 52 52
91.000000 -25.000000 142.155807 101 101 101
92.000000 -25.000000 140.028778 159 159 159
93.000000 -25.000000 142.864807 169 169 169
94.000000 -25.000000 143.219315 172 172 172
95.000000 -25.000000 142.864807 174 174 174
96.000000 -25.000000 141.446793 174 174 174
100.000000 -25.000000 117.340576 174 174 174
101.000000 -25.000000 120.885605 173 173 173
102.000000 -25.000000 121.949120 174 174 174
107.000000 -25.000000 139.674271 175 175 175
108.000000 -25.000000 141.446793 175 175 175
111.000000 -25.000000 180.442154 175 175 175
120.000000 -25.000000 151.372879 174 174 174
121.000000 -25.000000 149.600372 173 173 173
122.000000 -25.000000 147.473343 173 173 173
123.000000 -25.000000 148.891357 174 174 174
124.000000 -25.000000 149.245865 174 174 174
125.000000 -25.000000 149.600372 172 172 172
126.000000 -25.000000 148.891357 161 161 161
127.000000 -25.000000 148.536865 152 152 152
128.000000 -25.000000 148.536865 149 149 149
129.000000 -25.000000 149.245865 149 149 149
130.000000 -25.000000 149.245865 152 152 152
131.000000 -25.000000 148.891357 154 154 154
132.000000 -25.000000 148.182358 163 163 163
133.000000 -25.000000 149.600372 166 166 166
134.000000 -25.000000 150.309372 165 165 165
135.000000 -25.000000 150.663879 164 164 164
136.000000 -25.000000 151.018387 162 162 162
137.000000 -25.000000 104.932961 163 163 163
138.000000 -25.000000 110.250511 161 161 161
144.000000 -25.000000 148.182358 156 156 156
145.000000 -25.000000 150.309372 155 155 155
146.000000 -25.000000 154.917923 154 154 154
148.000000 -25.000000 156.335938 152 152 152
149.000000 -25.000000 156.690430 151 151 151
150.000000 -25.000000 156.690430 149 149 149
151.000000 -25.000000 156.690430 147 147 147
152.000000 -25.000000 152.081894 124 124 124
153.000000 -25.000000 152.081894 49 49 49
155.000000 -25.000000 109.186996 28 28 28
66.000000 -26.000000 357.339264 18 18 18
67.000000 -26.000000 357.339264 28 28 28
69.000000 -26.000000 10.280594 65 65 65
70.000000 -26.000000 15.243640 139 139 139
82.000000 -26.000000 137.901764 168 168 168
83.000000 -26.000000 137.901764 168 168 168
84.000000 -26.000000 138.965271 168 168 168
85.000000 -26.000000 142.864807 164 164 164
86.000000 -26.000000 140.737793 121 121 121
87.000000 -26.000000 140.737793 49 49 49
88.000000 -26.000000 141.092285 33 33 33
89.000000 -26.000000 142.155807 35 35 35
90.000000 -26.000000 142.510300 43 43 43
91.000000 -26.000000 142.155807 93 93 93
92.000000 -26.000000 139.674271 156 156 156
93.000000 -26.000000 142.510300 168 168 168
94.000000 -26.000000 142.510300 171 171 171
95.000000 -26.000000 142.510300 172 172 172
96.000000 -26.000000 141.092285 172 172 172
98.000000 -26.000000 99.969917 174 174 174
104.000000 -26.000000 141.446793 173 173 173
106.000000 -26.000000 140.737793 174 174 174
107.000000 -26.000000 140.383286 174 174 174
108.000000 -26.000000 142.155807 174 174 174
113.000000 -26.000000 108.832497 175 175 175
121.000000 -26.000000 149.245865 172 172 172
122.000000 -26.000000 147.118851 172 172 172
123.000000 -26.000000 148.182358 172 172 172
124.000000 -26.000000 148.891357 172 172 172
125.000000 -26.000000 149.600372 169 169 169
126.000000 -26.000000 148.891357 146 146 146
127.000000 -26.000000 148.536865 126 126 126
128.000000 -26.000000 148.182358 129 129 129
129.000000 -26.000000 148.891357 130 130 130
130.000000 -26.000000 149.245865 129 129 129
131.000000 -26.000000 148.891357 129 129 129
132.000000 -26.000000 147.827850 153 153 153
133.000000 -26.000000 149.245865 164 164 164
134.000000 -26.000000 149.954880 164 164 164
135.000000 -26.000000 150.309372 163 163 163
136.000000 -26.000000 150.663879 162 162 162
139.000000 -26.000000 154.917923 160 160 160
140.000000 -26.000000 152.081894 159 159 159
143.000000 -26.000000 151.018387 156 156 156
144.000000 -26.000000 150.309372 155 155 155
145.000000 -26.000000 150.663879 154 154 154
146.000000 -26.000000 154.208908 152 152 152
148.000000 -26.000000 156.335938 152 152 152
149.000000 -26.000000 156.690430 150 150 150
150.000000 -26.000000 156.690430 148 148 148
151.000000 -26.000000 157.044937 147 147 147
152.000000 -26.000000 152.436401 122 122 122
153.000000 -26.000000 154.917923 46 46 46
154.000000 -26.000000 103.160446 21 21 21
155.000000 -26.000000 106.705475 26 26 26
66.000000 -27.000000 357.339264 84 84 84
67.000000 -27.000000 357.339264 111 111 111
69.000000 -27.000000 10.280594 144 144 144
70.000000 -27.000000 15.952646 168 168 168
71.000000 -27.000000 19.143175 181 181 181
72.000000 -27.000000 19.143175 182 182 182
73.000000 -27.000000 18.788671 173 173 173
77.000000 -27.000000 156.335938 172 172 172
78.000000 -27.000000 157.044937 167 167 167
82.000000 -27.000000 136.483749 168 168 168
83.000000 -27.000000 136.483749 168 168 168
84.000000 -27.000000 138.610764 167 167 167
85.000000 -27.000000 142.864807 164 164 164
86.000000 -27.000000 140.737793 141 141 141
87.000000 -27.000000 140.737793 74 74 74
88.000000 -27.000000 141.092285 37 37 37
89.000000 -27.000000 141.801300 34 34 34
90.000000 -27.000000 142.155807 55 55 55
91.000000 -27.000000 141.801300 119 119 119
92.000000 -27.000000 139.674271 161 161 161
93.000000 -27.000000 141.801300 168 168 168
94.000000 -27.000000 142.155807 169 169 169
95.000000 -27.000000 141.801300 169 169 169
96.000000 -27.000000 141.092285 171 171 171
104.000000 -27.000000 141.092285 172 172 172
106.000000 -27.000000 141.092285 173 173 173
107.000000 -27.000000 140.028778 173 173 173
108.000000 -27.000000 142.155807 174 174 174
109.000000 -27.000000 142.864807 175 175 175
113.000000 -27.000000 108.832497 174 174 174
115.000000 -27.000000 148.536865 172 172 172
116.000000 -27.000000 147.118851 173 173 173
121.000000 -27.000000 148.536865 172 172 172
122.000000 -27.000000 146.409836 172 172 172
123.000000 -27.000000 147.473343 170 170 170
124.000000 -27.000000 148.891357 171 171 171
125.000000 -27.000000 149.600372 169 169 169
126.000000 -27.000000 148.891357 149 149 149
127.000000 -27.000000 148.536865 115 115 115
128.000000 -27.000000 147.827850 109 109 109
129.000000 -27.000000 148.891357 109 109 109
