ply
		format ascii 1.0
		element vertex 8592
		property float x
		property float y
		property float z
		property uchar red
		property uchar green
		property uchar blue
		end_header
124.000000 -50.000000 64.519592 142 62 67
125.000000 -50.000000 65.937607 140 61 66
126.000000 -50.000000 65.937607 138 60 66
127.000000 -50.000000 64.874092 135 58 64
128.000000 -50.000000 64.874092 133 56 62
129.000000 -50.000000 65.937607 131 54 61
130.000000 -50.000000 67.001114 128 53 57
131.000000 -50.000000 69.837135 124 52 56
132.000000 -50.000000 73.027672 124 51 56
133.000000 -50.000000 75.154686 121 49 54
134.000000 -50.000000 75.154686 118 48 50
135.000000 -50.000000 74.445679 115 46 48
136.000000 -50.000000 74.445679 113 44 48
137.000000 -50.000000 75.509193 111 42 45
138.000000 -50.000000 79.763229 107 41 40
139.000000 -50.000000 81.535744 106 40 41
140.000000 -50.000000 82.599258 107 39 41
141.000000 -50.000000 84.017265 106 37 38
142.000000 -50.000000 84.371773 104 37 35
143.000000 -50.000000 84.371773 99 42 43
144.000000 -50.000000 84.017265 74 51 54
145.000000 -50.000000 82.953758 48 47 50
146.000000 -50.000000 84.017265 44 46 51
147.000000 -50.000000 85.435280 41 45 49
148.000000 -50.000000 87.562302 37 42 45
149.000000 -50.000000 89.689323 34 38 41
150.000000 -50.000000 91.461838 33 34 37
151.000000 -50.000000 93.234352 39 37 33
152.000000 -50.000000 95.361374 58 52 40
153.000000 -50.000000 95.715874 84 77 57
154.000000 -50.000000 96.070381 96 87 62
155.000000 -50.000000 96.070381 90 78 57
156.000000 -50.000000 95.715874 83 67 49
157.000000 -50.000000 94.297859 77 62 40
158.000000 -50.000000 85.080780 73 57 34
63.000000 -51.000000 164.844009 91 93 106
64.000000 -51.000000 168.034531 83 84 96
65.000000 -51.000000 168.743546 89 67 74
66.000000 -51.000000 169.807053 122 49 49
67.000000 -51.000000 170.516068 129 44 46
68.000000 -51.000000 171.579575 104 41 47
69.000000 -51.000000 173.352081 63 35 39
70.000000 -51.000000 173.706589 51 36 39
71.000000 -51.000000 174.415604 46 37 45
72.000000 -51.000000 175.124603 53 53 63
73.000000 -51.000000 175.833603 89 96 109
74.000000 -51.000000 175.833603 85 92 105
75.000000 -51.000000 175.833603 86 89 102
76.000000 -51.000000 175.833603 62 59 69
77.000000 -51.000000 175.833603 59 57 64
78.000000 -51.000000 175.833603 136 145 162
79.000000 -51.000000 175.833603 186 200 230
80.000000 -51.000000 175.833603 186 204 233
81.000000 -51.000000 175.833603 187 208 232
82.000000 -51.000000 175.833603 192 211 235
83.000000 -51.000000 176.188110 198 213 243
84.000000 -51.000000 176.188110 194 205 235
85.000000 -51.000000 176.542618 146 146 166
86.000000 -51.000000 176.542618 116 82 91
87.000000 -51.000000 176.897125 132 81 90
88.000000 -51.000000 176.897125 136 91 98
89.000000 -51.000000 177.251617 165 137 132
90.000000 -51.000000 177.606125 219 210 207
91.000000 -51.000000 178.315125 232 237 246
92.000000 -51.000000 179.378647 220 231 245
93.000000 -51.000000 180.087646 188 202 220
94.000000 -51.000000 180.087646 194 211 231
95.000000 -51.000000 180.796661 212 231 253
96.000000 -51.000000 181.151154 213 230 255
97.000000 -51.000000 181.151154 213 227 253
98.000000 -51.000000 181.505661 214 217 238
99.000000 -51.000000 181.505661 197 168 170
100.000000 -51.000000 181.505661 164 93 87
101.000000 -51.000000 181.151154 154 66 67
102.000000 -51.000000 180.796661 153 63 65
103.000000 -51.000000 35.095821 153 62 66
104.000000 -51.000000 35.095821 153 62 67
105.000000 -51.000000 38.286350 154 63 69
106.000000 -51.000000 40.058868 154 63 67
107.000000 -51.000000 41.122375 153 63 65
108.000000 -51.000000 66.646606 154 64 68
109.000000 -51.000000 68.773628 154 65 72
110.000000 -51.000000 68.773628 154 65 72
111.000000 -51.000000 67.710121 154 65 67
112.000000 -51.000000 67.710121 154 65 68
113.000000 -51.000000 67.001114 154 65 72
114.000000 -51.000000 67.001114 154 65 72
115.000000 -51.000000 67.001114 153 66 71
116.000000 -51.000000 67.710121 152 66 73
117.000000 -51.000000 68.064621 153 66 74
118.000000 -51.000000 77.636208 152 65 72
119.000000 -51.000000 77.990715 151 65 69
120.000000 -51.000000 68.773628 150 66 69
121.000000 -51.000000 67.710121 147 66 69
122.000000 -51.000000 64.519592 145 65 68
123.000000 -51.000000 64.165085 143 63 68
124.000000 -51.000000 64.519592 142 61 67
125.000000 -51.000000 65.937607 140 60 65
126.000000 -51.000000 65.937607 138 59 64
127.000000 -51.000000 64.519592 134 57 62
128.000000 -51.000000 64.519592 132 55 61
129.000000 -51.000000 64.874092 131 54 61
130.000000 -51.000000 66.292107 128 53 60
131.000000 -51.000000 68.773628 125 52 58
132.000000 -51.000000 73.027672 123 51 54
133.000000 -51.000000 74.800186 120 48 50
134.000000 -51.000000 74.800186 119 47 48
135.000000 -51.000000 74.445679 116 46 45
136.000000 -51.000000 74.445679 111 44 44
137.000000 -51.000000 75.863693 109 42 43
138.000000 -51.000000 80.472237 107 40 42
139.000000 -51.000000 81.535744 107 39 41
140.000000 -51.000000 82.599258 107 38 40
141.000000 -51.000000 83.662766 105 37 37
142.000000 -51.000000 84.017265 105 37 36
143.000000 -51.000000 84.017265 99 42 43
144.000000 -51.000000 82.953758 73 49 52
145.000000 -51.000000 81.890251 46 45 46
146.000000 -51.000000 81.890251 42 44 46
147.000000 -51.000000 85.080780 40 44 45
148.000000 -51.000000 87.207802 37 41 44
149.000000 -51.000000 89.334816 34 37 41
150.000000 -51.000000 91.461838 32 34 36
151.000000 -51.000000 92.879852 36 34 30
152.000000 -51.000000 95.361374 51 45 35
153.000000 -51.000000 95.715874 83 75 58
154.000000 -51.000000 96.070381 94 86 63
155.000000 -51.000000 96.070381 89 78 56
156.000000 -51.000000 95.715874 83 69 50
157.000000 -51.000000 86.853294 79 64 44
158.000000 -51.000000 83.662766 74 60 39
63.000000 -52.000000 168.034531 87 87 99
64.000000 -52.000000 168.743546 79 78 90
65.000000 -52.000000 169.807053 85 66 73
66.000000 -52.000000 170.516068 112 54 54
67.000000 -52.000000 172.288574 113 51 50
68.000000 -52.000000 173.352081 85 49 56
69.000000 -52.000000 173.706589 57 46 57
70.000000 -52.000000 174.415604 45 42 53
71.000000 -52.000000 174.770096 40 41 53
72.000000 -52.000000 175.124603 83 90 106
73.000000 -52.000000 175.479111 149 164 193
74.000000 -52.000000 175.833603 130 145 174
75.000000 -52.000000 175.833603 93 93 107
76.000000 -52.000000 175.833603 87 59 60
77.000000 -52.000000 175.833603 91 66 69
78.000000 -52.000000 175.833603 139 140 154
79.000000 -52.000000 175.833603 183 192 218
80.000000 -52.000000 175.833603 187 202 232
81.000000 -52.000000 175.833603 176 197 223
82.000000 -52.000000 175.833603 173 192 216
83.000000 -52.000000 175.833603 172 186 215
84.000000 -52.000000 176.188110 163 167 186
85.000000 -52.000000 176.188110 149 128 134
86.000000 -52.000000 176.542618 141 80 84
87.000000 -52.000000 176.897125 148 69 75
88.000000 -52.000000 176.897125 161 92 92
89.000000 -52.000000 177.251617 209 175 165
90.000000 -52.000000 178.315125 240 237 236
91.000000 -52.000000 179.378647 243 248 251
92.000000 -52.000000 180.087646 238 246 251
93.000000 -52.000000 180.442154 228 240 251
94.000000 -52.000000 180.796661 219 236 253
95.000000 -52.000000 181.151154 214 233 255
96.000000 -52.000000 181.151154 212 229 255
97.000000 -52.000000 181.505661 210 225 253
98.000000 -52.000000 181.505661 194 206 235
99.000000 -52.000000 181.505661 175 172 191
100.000000 -52.000000 181.505661 169 121 120
101.000000 -52.000000 181.505661 155 72 70
102.000000 -52.000000 181.151154 154 63 65
103.000000 -52.000000 180.796661 154 63 65
104.000000 -52.000000 39.349861 154 64 66
105.000000 -52.000000 39.349861 155 64 68
106.000000 -52.000000 40.413368 154 63 69
107.000000 -52.000000 43.958401 154 63 68
108.000000 -52.000000 65.583099 154 63 68
109.000000 -52.000000 69.482635 154 63 69
110.000000 -52.000000 69.482635 154 63 69
111.000000 -52.000000 68.419128 154 64 67
112.000000 -52.000000 67.710121 155 64 68
113.000000 -52.000000 67.710121 155 64 72
114.000000 -52.000000 67.001114 155 65 73
115.000000 -52.000000 66.292107 154 66 73
116.000000 -52.000000 65.228600 152 65 74
117.000000 -52.000000 66.646606 152 65 73
118.000000 -52.000000 67.710121 152 65 73
119.000000 -52.000000 67.710121 152 65 71
120.000000 -52.000000 67.355614 150 65 70
121.000000 -52.000000 64.874092 146 65 69
122.000000 -52.000000 63.810585 145 64 68
123.000000 -52.000000 63.810585 143 62 68
124.000000 -52.000000 64.165085 142 61 68
125.000000 -52.000000 66.292107 141 60 67
126.000000 -52.000000 66.292107 138 58 64
127.000000 -52.000000 64.165085 134 57 60
128.000000 -52.000000 63.810585 131 55 58
129.000000 -52.000000 64.519592 130 54 59
130.000000 -52.000000 65.228600 129 52 60
131.000000 -52.000000 66.646606 125 50 58
132.000000 -52.000000 68.773628 123 49 54
133.000000 -52.000000 73.027672 119 48 51
134.000000 -52.000000 74.445679 118 46 49
135.000000 -52.000000 74.445679 115 45 48
136.000000 -52.000000 74.445679 110 43 45
137.000000 -52.000000 75.863693 108 41 44
138.000000 -52.000000 80.472237 107 39 42
139.000000 -52.000000 81.535744 107 39 40
140.000000 -52.000000 82.599258 105 38 41
141.000000 -52.000000 83.662766 104 37 40
142.000000 -52.000000 83.662766 103 37 40
143.000000 -52.000000 83.308266 98 42 47
144.000000 -52.000000 81.535744 76 53 59
145.000000 -52.000000 81.181244 48 46 50
146.000000 -52.000000 81.535744 40 41 42
147.000000 -52.000000 84.371773 37 39 40
148.000000 -52.000000 86.853294 33 36 38
149.000000 -52.000000 88.980316 29 32 35
150.000000 -52.000000 90.752831 28 29 30
151.000000 -52.000000 92.525345 31 30 24
152.000000 -52.000000 95.006866 45 40 30
153.000000 -52.000000 95.715874 80 72 58
154.000000 -52.000000 96.070381 93 85 65
155.000000 -52.000000 96.070381 88 78 56
156.000000 -52.000000 95.361374 84 70 51
157.000000 -52.000000 84.371773 80 65 46
158.000000 -52.000000 82.244751 74 61 42
63.000000 -53.000000 168.743546 84 82 94
64.000000 -53.000000 170.516068 71 69 82
65.000000 -53.000000 171.225067 71 64 74
66.000000 -53.000000 173.706589 80 63 67
67.000000 -53.000000 174.770096 75 58 62
68.000000 -53.000000 174.770096 58 52 60
69.000000 -53.000000 174.770096 46 45 57
70.000000 -53.000000 174.770096 46 44 57
71.000000 -53.000000 175.124603 72 75 91
72.000000 -53.000000 175.124603 110 121 143
73.000000 -53.000000 175.479111 152 167 201
74.000000 -53.000000 175.833603 142 153 185
75.000000 -53.000000 175.833603 100 90 101
76.000000 -53.000000 175.833603 115 62 60
77.000000 -53.000000 175.833603 130 65 65
78.000000 -53.000000 175.833603 137 104 106
79.000000 -53.000000 175.833603 142 135 139
80.000000 -53.000000 175.833603 136 142 161
81.000000 -53.000000 175.833603 124 135 157
82.000000 -53.000000 175.833603 118 129 149
83.000000 -53.000000 175.833603 113 122 142
84.000000 -53.000000 175.833603 122 113 123
85.000000 -53.000000 176.188110 136 89 91
86.000000 -53.000000 176.188110 142 69 76
87.000000 -53.000000 176.542618 150 69 73
88.000000 -53.000000 176.897125 174 109 104
89.000000 -53.000000 177.606125 226 204 196
90.000000 -53.000000 179.024139 245 248 246
91.000000 -53.000000 180.087646 247 252 252
92.000000 -53.000000 180.442154 244 250 251
93.000000 -53.000000 180.796661 231 243 252
94.000000 -53.000000 181.151154 218 236 254
95.000000 -53.000000 181.151154 212 231 255
96.000000 -53.000000 181.151154 210 228 254
97.000000 -53.000000 181.505661 206 222 251
98.000000 -53.000000 181.505661 163 179 206
99.000000 -53.000000 181.505661 127 135 157
100.000000 -53.000000 181.505661 162 135 141
101.000000 -53.000000 181.505661 157 84 81
102.000000 -53.000000 181.505661 154 65 64
103.000000 -53.000000 181.151154 155 65 63
104.000000 -53.000000 180.796661 154 64 64
105.000000 -53.000000 41.122375 154 64 65
106.000000 -53.000000 39.349861 154 63 65
107.000000 -53.000000 41.122375 154 63 65
108.000000 -53.000000 65.583099 153 63 64
109.000000 -53.000000 68.419128 153 63 65
110.000000 -53.000000 68.419128 153 63 65
111.000000 -53.000000 68.419128 154 63 68
112.000000 -53.000000 68.419128 154 64 69
113.000000 -53.000000 67.710121 154 64 72
114.000000 -53.000000 67.001114 153 65 71
115.000000 -53.000000 65.937607 152 65 69
116.000000 -53.000000 64.519592 152 65 72
117.000000 -53.000000 64.519592 152 65 73
118.000000 -53.000000 66.646606 152 65 73
119.000000 -53.000000 66.646606 152 65 72
120.000000 -53.000000 65.583099 150 64 71
121.000000 -53.000000 64.519592 147 64 68
122.000000 -53.000000 63.456081 145 63 65
123.000000 -53.000000 63.456081 143 62 65
124.000000 -53.000000 64.165085 142 61 65
125.000000 -53.000000 66.292107 139 59 64
126.000000 -53.000000 66.292107 136 57 62
127.000000 -53.000000 63.810585 133 56 59
128.000000 -53.000000 63.810585 130 54 56
129.000000 -53.000000 63.810585 130 53 57
130.000000 -53.000000 64.519592 128 52 57
131.000000 -53.000000 65.228600 124 50 55
132.000000 -53.000000 67.355614 122 48 53
133.000000 -53.000000 69.128136 119 46 51
134.000000 -53.000000 72.318665 116 46 49
135.000000 -53.000000 73.382172 114 44 48
136.000000 -53.000000 74.091179 111 42 45
137.000000 -53.000000 75.863693 109 40 43
138.000000 -53.000000 79.408730 108 40 42
139.000000 -53.000000 80.826736 107 39 41
140.000000 -53.000000 81.890251 105 38 41
141.000000 -53.000000 82.599258 103 38 42
142.000000 -53.000000 83.308266 102 38 41
143.000000 -53.000000 81.535744 94 40 45
144.000000 -53.000000 80.472237 66 44 50
145.000000 -53.000000 80.472237 39 37 41
146.000000 -53.000000 80.472237 30 30 31
147.000000 -53.000000 83.662766 26 26 26
148.000000 -53.000000 86.144287 22 23 24
149.000000 -53.000000 87.916801 20 22 22
150.000000 -53.000000 90.752831 22 21 20
151.000000 -53.000000 92.170845 27 23 18
152.000000 -53.000000 95.006866 43 36 27
153.000000 -53.000000 95.715874 81 71 57
154.000000 -53.000000 96.070381 94 84 65
155.000000 -53.000000 96.070381 90 77 56
156.000000 -53.000000 84.371773 86 70 51
157.000000 -53.000000 83.662766 82 65 48
158.000000 -53.000000 81.890251 75 61 44
63.000000 -54.000000 170.516068 74 73 84
64.000000 -54.000000 174.770096 49 49 62
65.000000 -54.000000 175.833603 48 46 60
66.000000 -54.000000 175.833603 51 50 59
67.000000 -54.000000 175.833603 53 52 59
68.000000 -54.000000 175.833603 46 45 53
69.000000 -54.000000 175.479111 50 42 51
70.000000 -54.000000 175.479111 71 60 69
71.000000 -54.000000 175.479111 100 105 123
72.000000 -54.000000 175.479111 98 112 137
73.000000 -54.000000 175.479111 110 124 148
74.000000 -54.000000 175.833603 117 117 132
75.000000 -54.000000 175.833603 94 74 73
76.000000 -54.000000 175.833603 119 61 59
77.000000 -54.000000 175.833603 139 60 58
78.000000 -54.000000 175.833603 133 69 69
79.000000 -54.000000 175.833603 105 80 80
80.000000 -54.000000 175.833603 87 88 96
81.000000 -54.000000 175.833603 93 97 109
82.000000 -54.000000 175.833603 92 99 114
83.000000 -54.000000 175.833603 90 97 114
84.000000 -54.000000 175.833603 104 96 108
85.000000 -54.000000 175.833603 104 75 81
86.000000 -54.000000 176.188110 110 68 76
87.000000 -54.000000 176.542618 142 86 90
88.000000 -54.000000 176.897125 177 129 124
89.000000 -54.000000 177.606125 221 207 204
90.000000 -54.000000 179.378647 231 238 242
91.000000 -54.000000 180.442154 228 240 245
92.000000 -54.000000 180.796661 231 243 251
93.000000 -54.000000 181.151154 220 237 253
94.000000 -54.000000 181.151154 211 231 254
95.000000 -54.000000 181.151154 208 228 255
96.000000 -54.000000 181.505661 207 226 254
97.000000 -54.000000 181.505661 204 223 253
98.000000 -54.000000 181.505661 186 205 235
99.000000 -54.000000 181.505661 173 187 214
100.000000 -54.000000 181.505661 180 169 185
101.000000 -54.000000 181.505661 158 95 97
102.000000 -54.000000 181.505661 154 66 68
103.000000 -54.000000 181.505661 155 64 66
104.000000 -54.000000 181.505661 154 64 66
105.000000 -54.000000 181.151154 155 65 65
106.000000 -54.000000 41.831383 154 64 64
107.000000 -54.000000 62.392570 154 64 63
108.000000 -54.000000 66.292107 154 64 63
109.000000 -54.000000 68.419128 153 63 62
110.000000 -54.000000 68.419128 154 64 64
111.000000 -54.000000 68.773628 154 65 68
112.000000 -54.000000 68.773628 153 65 69
113.000000 -54.000000 68.419128 153 65 71
114.000000 -54.000000 67.355614 152 65 70
115.000000 -54.000000 66.646606 151 65 68
116.000000 -54.000000 64.519592 152 65 70
117.000000 -54.000000 64.519592 152 65 72
118.000000 -54.000000 64.519592 152 65 72
119.000000 -54.000000 65.937607 151 65 71
120.000000 -54.000000 65.228600 149 63 72
121.000000 -54.000000 64.165085 147 63 69
122.000000 -54.000000 63.101578 144 62 65
123.000000 -54.000000 63.101578 143 62 64
124.000000 -54.000000 64.165085 141 61 63
125.000000 -54.000000 64.874092 138 60 63
126.000000 -54.000000 64.874092 136 58 61
127.000000 -54.000000 63.810585 133 57 59
128.000000 -54.000000 63.456081 131 55 55
129.000000 -54.000000 63.810585 129 53 53
130.000000 -54.000000 64.165085 127 52 53
131.000000 -54.000000 64.519592 123 50 53
132.000000 -54.000000 65.228600 120 47 50
133.000000 -54.000000 67.355614 117 45 47
134.000000 -54.000000 69.128136 115 44 46
135.000000 -54.000000 69.837135 114 44 47
136.000000 -54.000000 73.382172 112 42 46
137.000000 -54.000000 75.154686 110 40 44
138.000000 -54.000000 78.699722 108 39 42
139.000000 -54.000000 79.408730 108 39 42
140.000000 -54.000000 80.826736 105 38 42
141.000000 -54.000000 81.535744 103 38 41
142.000000 -54.000000 81.535744 102 38 39
143.000000 -54.000000 80.472237 91 38 41
144.000000 -54.000000 79.763229 58 37 42
145.000000 -54.000000 79.763229 37 35 37
146.000000 -54.000000 79.763229 27 28 28
147.000000 -54.000000 82.599258 21 21 21
148.000000 -54.000000 85.435280 18 18 18
149.000000 -54.000000 87.207802 17 18 17
150.000000 -54.000000 90.043823 19 19 15
151.000000 -54.000000 91.816338 25 21 17
152.000000 -54.000000 95.006866 42 34 27
153.000000 -54.000000 95.361374 81 71 54
154.000000 -54.000000 95.715874 94 83 60
155.000000 -54.000000 95.715874 89 76 54
156.000000 -54.000000 84.371773 86 70 51
157.000000 -54.000000 83.662766 83 66 49
158.000000 -54.000000 81.890251 78 62 46
63.000000 -55.000000 174.770096 75 75 82
64.000000 -55.000000 177.606125 60 60 70
65.000000 -55.000000 177.606125 46 46 59
66.000000 -55.000000 177.606125 39 39 49
67.000000 -55.000000 176.897125 43 43 49
68.000000 -55.000000 176.188110 41 40 45
69.000000 -55.000000 175.833603 63 44 49
70.000000 -55.000000 175.833603 105 83 90
71.000000 -55.000000 175.833603 132 137 156
72.000000 -55.000000 175.479111 114 128 154
73.000000 -55.000000 175.479111 112 125 145
74.000000 -55.000000 175.833603 109 107 114
75.000000 -55.000000 175.833603 96 73 64
76.000000 -55.000000 175.833603 121 70 64
77.000000 -55.000000 175.833603 131 62 58
78.000000 -55.000000 175.833603 124 64 65
79.000000 -55.000000 175.833603 103 81 88
80.000000 -55.000000 175.833603 105 113 129
81.000000 -55.000000 175.833603 105 117 132
82.000000 -55.000000 175.833603 104 117 129
83.000000 -55.000000 175.833603 118 135 152
84.000000 -55.000000 175.833603 137 151 179
85.000000 -55.000000 176.188110 113 119 138
86.000000 -55.000000 176.542618 87 85 97
87.000000 -55.000000 176.897125 121 113 126
88.000000 -55.000000 177.606125 164 151 156
89.000000 -55.000000 178.315125 193 189 193
90.000000 -55.000000 179.378647 168 183 202
91.000000 -55.000000 180.442154 164 183 205
92.000000 -55.000000 181.151154 200 221 243
93.000000 -55.000000 181.151154 207 228 254
94.000000 -55.000000 181.151154 205 226 254
95.000000 -55.000000 181.505661 203 225 255
96.000000 -55.000000 181.505661 202 223 255
97.000000 -55.000000 181.505661 200 221 255
98.000000 -55.000000 181.505661 198 219 254
99.000000 -55.000000 181.505661 198 216 250
100.000000 -55.000000 181.505661 185 181 203
101.000000 -55.000000 181.505661 155 100 104
102.000000 -55.000000 181.505661 152 68 72
103.000000 -55.000000 181.505661 153 66 69
104.000000 -55.000000 181.505661 153 65 68
105.000000 -55.000000 181.505661 154 65 67
106.000000 -55.000000 181.505661 153 65 66
107.000000 -55.000000 66.292107 153 65 66
108.000000 -55.000000 66.646606 153 65 66
109.000000 -55.000000 68.419128 153 65 65
110.000000 -55.000000 68.419128 153 66 64
111.000000 -55.000000 68.773628 153 67 68
112.000000 -55.000000 69.482635 152 66 69
113.000000 -55.000000 69.482635 152 65 71
114.000000 -55.000000 68.064621 152 65 71
115.000000 -55.000000 66.646606 152 65 71
116.000000 -55.000000 64.519592 151 66 71
117.000000 -55.000000 64.519592 150 66 71
118.000000 -55.000000 64.519592 149 66 72
119.000000 -55.000000 64.519592 149 65 73
120.000000 -55.000000 64.165085 147 64 74
121.000000 -55.000000 63.456081 145 64 71
122.000000 -55.000000 62.747074 144 63 69
123.000000 -55.000000 62.747074 142 62 67
124.000000 -55.000000 63.101578 140 61 65
125.000000 -55.000000 64.165085 137 60 64
126.000000 -55.000000 64.165085 135 59 62
127.000000 -55.000000 63.810585 133 57 59
128.000000 -55.000000 63.101578 131 55 56
129.000000 -55.000000 63.456081 129 53 53
130.000000 -55.000000 63.810585 126 50 52
131.000000 -55.000000 64.165085 123 49 53
132.000000 -55.000000 64.519592 121 47 51
133.000000 -55.000000 65.937607 118 45 48
134.000000 -55.000000 67.355614 115 43 46
135.000000 -55.000000 68.773628 113 42 44
136.000000 -55.000000 69.837135 111 41 43
137.000000 -55.000000 73.736671 110 39 43
138.000000 -55.000000 77.636208 108 39 41
139.000000 -55.000000 78.699722 107 39 40
140.000000 -55.000000 79.408730 106 39 40
141.000000 -55.000000 80.117737 105 38 41
142.000000 -55.000000 80.117737 103 38 40
143.000000 -55.000000 79.408730 91 38 41
144.000000 -55.000000 79.054222 60 43 44
145.000000 -55.000000 79.054222 45 45 44
146.000000 -55.000000 79.763229 37 37 37
147.000000 -55.000000 82.599258 27 27 27
148.000000 -55.000000 85.080780 22 22 22
149.000000 -55.000000 86.853294 20 20 19
150.000000 -55.000000 90.043823 21 21 17
151.000000 -55.000000 91.816338 25 23 18
152.000000 -55.000000 95.006866 42 35 25
153.000000 -55.000000 95.361374 80 71 53
154.000000 -55.000000 95.715874 94 84 60
155.000000 -55.000000 95.715874 89 76 54
156.000000 -55.000000 84.726273 87 69 51
157.000000 -55.000000 83.662766 83 65 47
158.000000 -55.000000 82.953758 77 60 41
63.000000 -56.000000 177.606125 73 72 78
64.000000 -56.000000 178.315125 66 65 73
65.000000 -56.000000 178.315125 52 52 61
66.000000 -56.000000 178.315125 49 49 56
67.000000 -56.000000 177.606125 46 45 51
68.000000 -56.000000 176.897125 47 46 51
69.000000 -56.000000 176.542618 70 63 67
70.000000 -56.000000 176.188110 136 132 145
71.000000 -56.000000 175.833603 181 189 220
72.000000 -56.000000 175.833603 150 160 190
73.000000 -56.000000 175.833603 111 117 135
74.000000 -56.000000 175.833603 95 94 100
75.000000 -56.000000 175.833603 118 107 107
76.000000 -56.000000 175.833603 133 115 123
77.000000 -56.000000 175.833603 95 75 81
78.000000 -56.000000 175.833603 86 70 79
79.000000 -56.000000 175.833603 105 108 125
80.000000 -56.000000 175.833603 141 160 189
81.000000 -56.000000 175.833603 154 176 202
82.000000 -56.000000 175.833603 166 190 207
83.000000 -56.000000 175.833603 164 187 209
84.000000 -56.000000 176.188110 147 168 203
85.000000 -56.000000 176.542618 128 144 174
86.000000 -56.000000 176.897125 103 112 131
87.000000 -56.000000 177.606125 101 110 128
88.000000 -56.000000 177.960632 142 147 160
89.000000 -56.000000 179.024139 168 168 174
90.000000 -56.000000 180.087646 137 154 176
91.000000 -56.000000 180.796661 143 165 194
92.000000 -56.000000 181.151154 187 210 241
93.000000 -56.000000 181.505661 200 221 255
94.000000 -56.000000 181.505661 199 221 255
95.000000 -56.000000 181.505661 198 220 255
96.000000 -56.000000 181.505661 197 219 255
97.000000 -56.000000 181.505661 196 218 255
98.000000 -56.000000 181.505661 196 217 255
99.000000 -56.000000 181.505661 194 212 249
100.000000 -56.000000 181.505661 180 180 204
101.000000 -56.000000 181.505661 161 126 134
102.000000 -56.000000 181.505661 144 83 87
103.000000 -56.000000 181.505661 132 63 64
104.000000 -56.000000 181.505661 133 60 62
105.000000 -56.000000 181.860168 135 61 62
106.000000 -56.000000 181.505661 136 60 60
107.000000 -56.000000 181.505661 136 60 62
108.000000 -56.000000 69.128136 138 61 63
109.000000 -56.000000 69.128136 139 62 62
110.000000 -56.000000 69.128136 140 64 60
111.000000 -56.000000 69.128136 141 64 62
112.000000 -56.000000 69.128136 142 63 64
113.000000 -56.000000 69.482635 144 63 67
114.000000 -56.000000 69.837135 144 63 68
115.000000 -56.000000 68.064621 144 64 68
116.000000 -56.000000 66.646606 144 64 70
117.000000 -56.000000 64.519592 144 65 69
118.000000 -56.000000 64.519592 144 65 68
119.000000 -56.000000 64.519592 144 65 71
120.000000 -56.000000 63.810585 143 64 70
121.000000 -56.000000 62.747074 142 64 69
122.000000 -56.000000 62.392570 141 63 70
123.000000 -56.000000 62.747074 140 61 68
124.000000 -56.000000 63.810585 138 60 66
125.000000 -56.000000 64.165085 135 59 65
126.000000 -56.000000 64.165085 134 58 62
127.000000 -56.000000 63.810585 131 57 58
128.000000 -56.000000 63.101578 129 56 58
129.000000 -56.000000 63.456081 127 53 58
130.000000 -56.000000 63.810585 124 50 56
131.000000 -56.000000 64.165085 122 48 54
132.000000 -56.000000 64.519592 120 47 52
133.000000 -56.000000 64.874092 117 45 48
134.000000 -56.000000 65.937607 114 43 45
135.000000 -56.000000 67.355614 112 42 42
136.000000 -56.000000 69.128136 110 40 41
137.000000 -56.000000 72.673164 109 38 42
138.000000 -56.000000 75.509193 108 39 40
139.000000 -56.000000 77.990715 107 39 38
140.000000 -56.000000 78.345215 106 39 40
141.000000 -56.000000 79.408730 106 39 42
142.000000 -56.000000 79.408730 104 38 40
143.000000 -56.000000 79.408730 92 40 40
144.000000 -56.000000 78.699722 62 47 46
145.000000 -56.000000 78.699722 50 49 49
146.000000 -56.000000 80.117737 46 46 46
147.000000 -56.000000 83.308266 37 37 37
148.000000 -56.000000 85.080780 29 29 28
149.000000 -56.000000 86.853294 25 25 21
150.000000 -56.000000 90.043823 25 25 19
151.000000 -56.000000 92.170845 29 25 19
152.000000 -56.000000 95.006866 46 37 25
153.000000 -56.000000 95.361374 82 72 52
154.000000 -56.000000 95.715874 94 83 59
155.000000 -56.000000 95.715874 90 77 54
156.000000 -56.000000 85.080780 87 69 51
157.000000 -56.000000 84.017265 83 66 47
158.000000 -56.000000 83.662766 77 61 39
63.000000 -57.000000 178.315125 55 54 58
64.000000 -57.000000 179.733139 37 36 40
65.000000 -57.000000 179.733139 28 27 33
66.000000 -57.000000 178.669632 31 30 37
67.000000 -57.000000 178.315125 40 39 46
68.000000 -57.000000 177.606125 54 53 60
69.000000 -57.000000 177.251617 78 77 82
70.000000 -57.000000 176.542618 131 133 144
71.000000 -57.000000 176.188110 164 169 193
72.000000 -57.000000 176.188110 137 137 156
73.000000 -57.000000 175.833603 122 119 130
74.000000 -57.000000 175.833603 148 149 164
75.000000 -57.000000 175.833603 174 177 201
76.000000 -57.000000 175.833603 125 131 156
77.000000 -57.000000 175.833603 73 80 98
78.000000 -57.000000 175.833603 66 73 90
79.000000 -57.000000 175.833603 99 110 132
80.000000 -57.000000 175.833603 155 174 201
81.000000 -57.000000 175.833603 167 191 213
82.000000 -57.000000 175.833603 175 197 217
83.000000 -57.000000 176.188110 175 189 209
84.000000 -57.000000 176.188110 169 182 209
85.000000 -57.000000 176.542618 170 187 219
86.000000 -57.000000 176.897125 161 177 206
87.000000 -57.000000 177.606125 114 128 149
88.000000 -57.000000 177.960632 104 113 126
89.000000 -57.000000 179.024139 147 147 147
90.000000 -57.000000 180.087646 175 187 202
91.000000 -57.000000 181.151154 184 207 239
92.000000 -57.000000 181.151154 192 216 252
93.000000 -57.000000 181.505661 194 217 255
94.000000 -57.000000 181.505661 194 216 255
95.000000 -57.000000 181.505661 192 213 252
96.000000 -57.000000 181.505661 184 206 245
97.000000 -57.000000 181.505661 189 209 248
98.000000 -57.000000 181.505661 192 212 252
99.000000 -57.000000 181.505661 184 200 235
100.000000 -57.000000 181.505661 156 158 176
101.000000 -57.000000 181.505661 151 144 156
102.000000 -57.000000 181.505661 146 134 145
103.000000 -57.000000 181.505661 104 86 87
104.000000 -57.000000 181.505661 85 57 55
105.000000 -57.000000 181.505661 86 53 52
106.000000 -57.000000 181.860168 86 51 50
107.000000 -57.000000 181.505661 84 50 51
108.000000 -57.000000 73.027672 85 49 51
109.000000 -57.000000 69.128136 87 50 49
110.000000 -57.000000 70.900650 88 52 49
111.000000 -57.000000 69.128136 90 52 49
112.000000 -57.000000 69.837135 93 52 50
113.000000 -57.000000 70.191643 96 51 53
114.000000 -57.000000 73.027672 97 52 54
115.000000 -57.000000 75.509193 98 53 54
116.000000 -57.000000 75.509193 99 53 55
117.000000 -57.000000 67.001114 102 53 53
118.000000 -57.000000 67.001114 104 53 53
119.000000 -57.000000 64.874092 107 53 55
120.000000 -57.000000 63.810585 108 53 55
121.000000 -57.000000 62.747074 108 53 54
122.000000 -57.000000 62.392570 108 52 55
123.000000 -57.000000 62.747074 109 51 56
124.000000 -57.000000 64.519592 109 52 56
125.000000 -57.000000 64.874092 108 51 54
126.000000 -57.000000 64.874092 109 50 52
127.000000 -57.000000 64.165085 108 49 49
128.000000 -57.000000 63.810585 108 48 49
129.000000 -57.000000 64.519592 107 46 50
130.000000 -57.000000 64.519592 106 45 47
131.000000 -57.000000 64.519592 104 44 42
132.000000 -57.000000 64.874092 103 43 42
133.000000 -57.000000 65.937607 103 41 40
134.000000 -57.000000 66.646606 102 39 37
135.000000 -57.000000 68.064621 102 38 37
136.000000 -57.000000 69.128136 102 37 38
137.000000 -57.000000 72.673164 100 37 39
138.000000 -57.000000 74.800186 100 37 38
139.000000 -57.000000 77.636208 99 37 36
140.000000 -57.000000 77.990715 100 37 39
141.000000 -57.000000 78.345215 101 38 41
142.000000 -57.000000 79.408730 100 38 37
143.000000 -57.000000 79.054222 90 40 39
144.000000 -57.000000 79.054222 60 46 45
145.000000 -57.000000 79.054222 49 49 49
146.000000 -57.000000 80.472237 49 49 49
147.000000 -57.000000 84.371773 47 47 46
148.000000 -57.000000 85.789787 38 39 36
149.000000 -57.000000 87.562302 30 31 26
150.000000 -57.000000 90.398331 29 28 23
151.000000 -57.000000 92.170845 35 29 23
152.000000 -57.000000 95.361374 55 46 33
153.000000 -57.000000 95.361374 84 73 54
154.000000 -57.000000 95.361374 92 82 58
155.000000 -57.000000 95.361374 87 76 52
156.000000 -57.000000 85.435280 82 69 49
157.000000 -57.000000 84.371773 79 65 47
158.000000 -57.000000 83.662766 76 60 40
63.000000 -58.000000 179.733139 59 57 62
64.000000 -58.000000 179.733139 34 33 39
65.000000 -58.000000 179.733139 33 31 39
66.000000 -58.000000 179.024139 39 34 42
67.000000 -58.000000 178.315125 47 42 50
68.000000 -58.000000 177.960632 44 44 53
69.000000 -58.000000 177.606125 48 49 58
70.000000 -58.000000 177.251617 79 79 84
71.000000 -58.000000 176.542618 123 122 125
72.000000 -58.000000 176.188110 141 137 147
73.000000 -58.000000 176.188110 175 176 197
74.000000 -58.000000 175.833603 200 209 238
75.000000 -58.000000 175.833603 190 201 232
76.000000 -58.000000 175.833603 124 132 154
77.000000 -58.000000 175.833603 83 88 105
78.000000 -58.000000 175.833603 77 83 100
79.000000 -58.000000 175.833603 121 134 154
80.000000 -58.000000 175.833603 188 208 228
81.000000 -58.000000 175.833603 198 220 237
82.000000 -58.000000 175.833603 196 211 230
83.000000 -58.000000 176.188110 203 208 222
84.000000 -58.000000 176.188110 200 208 230
85.000000 -58.000000 176.542618 182 197 230
86.000000 -58.000000 176.897125 165 180 211
87.000000 -58.000000 177.251617 148 164 193
88.000000 -58.000000 177.606125 126 137 159
89.000000 -58.000000 178.315125 131 128 129
90.000000 -58.000000 180.087646 171 171 170
91.000000 -58.000000 181.151154 190 205 232
92.000000 -58.000000 181.151154 192 213 252
93.000000 -58.000000 181.505661 191 213 255
94.000000 -58.000000 181.505661 190 212 254
95.000000 -58.000000 181.505661 174 195 236
96.000000 -58.000000 181.505661 130 152 187
97.000000 -58.000000 181.505661 160 179 214
98.000000 -58.000000 181.505661 185 202 240
99.000000 -58.000000 181.505661 166 173 196
100.000000 -58.000000 181.505661 129 119 123
101.000000 -58.000000 181.505661 117 103 106
102.000000 -58.000000 181.505661 132 127 135
103.000000 -58.000000 181.505661 123 121 127
104.000000 -58.000000 181.505661 98 84 84
105.000000 -58.000000 181.505661 96 74 76
106.000000 -58.000000 181.505661 94 73 75
107.000000 -58.000000 181.505661 91 72 74
108.000000 -58.000000 74.445679 88 70 71
109.000000 -58.000000 73.027672 87 69 69
110.000000 -58.000000 73.027672 87 69 68
111.000000 -58.000000 72.318665 87 68 67
112.000000 -58.000000 72.318665 86 68 66
113.000000 -58.000000 73.382172 85 66 67
114.000000 -58.000000 74.800186 84 66 67
115.000000 -58.000000 76.927200 81 66 67
116.000000 -58.000000 77.281708 80 64 64
117.000000 -58.000000 77.636208 80 62 61
118.000000 -58.000000 68.773628 79 62 60
119.000000 -58.000000 67.001114 78 61 61
120.000000 -58.000000 66.646606 77 59 60
121.000000 -58.000000 62.392570 75 56 57
122.000000 -58.000000 63.810585 74 54 56
123.000000 -58.000000 64.519592 72 52 55
124.000000 -58.000000 64.874092 70 51 53
125.000000 -58.000000 69.128136 68 50 49
126.000000 -58.000000 71.255150 68 47 46
127.000000 -58.000000 72.673164 68 44 42
128.000000 -58.000000 72.673164 67 43 41
129.000000 -58.000000 72.673164 66 41 41
130.000000 -58.000000 72.673164 64 39 39
131.000000 -58.000000 71.964157 62 37 36
132.000000 -58.000000 71.964157 61 36 35
133.000000 -58.000000 71.609657 61 34 33
134.000000 -58.000000 68.419128 62 33 31
135.000000 -58.000000 69.128136 62 31 29
136.000000 -58.000000 70.546143 63 31 31
137.000000 -58.000000 72.673164 62 31 31
138.000000 -58.000000 74.800186 63 31 30
139.000000 -58.000000 77.636208 64 31 29
140.000000 -58.000000 77.990715 65 31 30
141.000000 -58.000000 78.345215 66 31 32
142.000000 -58.000000 79.054222 66 32 32
143.000000 -58.000000 79.054222 65 38 38
144.000000 -58.000000 79.408730 54 45 45
145.000000 -58.000000 79.408730 48 48 48
146.000000 -58.000000 80.826736 49 49 49
147.000000 -58.000000 84.726273 50 50 50
148.000000 -58.000000 87.207802 47 47 45
149.000000 -58.000000 88.625809 38 38 36
150.000000 -58.000000 90.752831 33 32 28
151.000000 -58.000000 92.879852 38 33 28
152.000000 -58.000000 95.361374 59 51 39
153.000000 -58.000000 95.361374 82 73 55
154.000000 -58.000000 95.361374 90 80 59
155.000000 -58.000000 95.361374 86 75 52
156.000000 -58.000000 86.144287 80 69 49
157.000000 -58.000000 84.726273 77 65 49
158.000000 -58.000000 84.017265 75 60 43
63.000000 -59.000000 179.378647 79 75 82
64.000000 -59.000000 179.378647 61 59 66
65.000000 -59.000000 179.024139 67 59 64
66.000000 -59.000000 178.669632 78 57 62
67.000000 -59.000000 177.960632 72 52 55
68.000000 -59.000000 177.606125 41 35 38
69.000000 -59.000000 177.606125 36 36 41
70.000000 -59.000000 177.251617 64 62 66
71.000000 -59.000000 176.542618 118 117 121
72.000000 -59.000000 176.542618 172 175 194
73.000000 -59.000000 176.188110 186 196 226
74.000000 -59.000000 176.188110 195 207 240
75.000000 -59.000000 175.833603 176 184 213
76.000000 -59.000000 175.833603 124 123 138
77.000000 -59.000000 175.833603 120 122 140
78.000000 -59.000000 175.833603 134 146 171
79.000000 -59.000000 175.833603 144 162 189
80.000000 -59.000000 175.833603 142 161 183
81.000000 -59.000000 175.833603 139 156 176
82.000000 -59.000000 175.833603 153 166 188
83.000000 -59.000000 175.833603 184 193 216
84.000000 -59.000000 176.188110 166 176 200
85.000000 -59.000000 176.188110 112 126 149
86.000000 -59.000000 176.542618 124 140 163
87.000000 -59.000000 176.897125 167 187 221
88.000000 -59.000000 177.606125 163 179 213
89.000000 -59.000000 177.960632 135 138 150
90.000000 -59.000000 179.733139 142 135 127
91.000000 -59.000000 180.796661 171 168 169
92.000000 -59.000000 181.151154 186 195 222
93.000000 -59.000000 181.505661 188 206 245
94.000000 -59.000000 181.860168 188 208 249
95.000000 -59.000000 181.860168 168 188 227
96.000000 -59.000000 181.505661 108 130 156
97.000000 -59.000000 181.505661 136 152 175
98.000000 -59.000000 181.505661 166 170 191
99.000000 -59.000000 181.505661 141 130 136
100.000000 -59.000000 181.505661 122 101 97
101.000000 -59.000000 181.505661 117 94 93
102.000000 -59.000000 181.151154 117 97 97
103.000000 -59.000000 181.151154 117 99 101
104.000000 -59.000000 181.151154 113 92 94
105.000000 -59.000000 181.505661 113 90 91
106.000000 -59.000000 181.505661 114 91 91
107.000000 -59.000000 181.505661 112 90 90
108.000000 -59.000000 78.699722 111 90 89
109.000000 -59.000000 76.218201 110 89 89
110.000000 -59.000000 74.800186 111 89 88
111.000000 -59.000000 73.736671 111 90 88
112.000000 -59.000000 73.382172 111 90 87
113.000000 -59.000000 73.736671 111 90 88
114.000000 -59.000000 75.154686 111 90 90
115.000000 -59.000000 77.281708 109 89 91
116.000000 -59.000000 77.636208 108 88 89
117.000000 -59.000000 78.345215 107 87 88
118.000000 -59.000000 78.345215 106 88 89
119.000000 -59.000000 77.990715 104 87 88
120.000000 -59.000000 68.773628 102 86 87
121.000000 -59.000000 66.646606 100 84 85
122.000000 -59.000000 64.874092 98 82 83
123.000000 -59.000000 65.937607 96 80 81
124.000000 -59.000000 67.355614 93 78 78
125.000000 -59.000000 69.128136 90 76 74
126.000000 -59.000000 72.318665 87 73 71
127.000000 -59.000000 73.027672 85 69 69
128.000000 -59.000000 73.736671 82 66 66
129.000000 -59.000000 74.091179 79 64 64
130.000000 -59.000000 74.091179 77 61 63
131.000000 -59.000000 73.736671 75 58 59
132.000000 -59.000000 73.736671 72 55 55
133.000000 -59.000000 73.736671 69 53 51
134.000000 -59.000000 72.318665 67 52 49
135.000000 -59.000000 71.609657 63 50 46
136.000000 -59.000000 72.673164 61 49 44
137.000000 -59.000000 73.736671 60 48 43
138.000000 -59.000000 74.800186 59 46 42
139.000000 -59.000000 77.636208 57 44 42
140.000000 -59.000000 77.990715 55 44 42
141.000000 -59.000000 78.699722 54 43 42
142.000000 -59.000000 79.408730 53 44 43
143.000000 -59.000000 79.408730 55 47 47
144.000000 -59.000000 79.763229 55 52 51
145.000000 -59.000000 79.763229 54 53 51
146.000000 -59.000000 81.181244 54 54 53
147.000000 -59.000000 85.080780 54 54 54
148.000000 -59.000000 88.625809 53 54 52
149.000000 -59.000000 90.398331 50 50 47
150.000000 -59.000000 92.879852 43 41 38
151.000000 -59.000000 93.943359 41 36 32
152.000000 -59.000000 95.715874 53 46 37
153.000000 -59.000000 95.715874 77 70 55
154.000000 -59.000000 95.361374 87 79 60
155.000000 -59.000000 95.361374 86 76 55
156.000000 -59.000000 88.980316 84 70 52
157.000000 -59.000000 86.144287 81 67 50
158.000000 -59.000000 84.017265 77 61 43
63.000000 -60.000000 178.669632 88 84 88
64.000000 -60.000000 179.024139 84 78 80
65.000000 -60.000000 178.315125 88 72 71
66.000000 -60.000000 177.960632 95 65 62
67.000000 -60.000000 177.606125 87 57 52
68.000000 -60.000000 177.606125 51 38 35
69.000000 -60.000000 177.251617 47 43 46
70.000000 -60.000000 177.251617 89 82 87
71.000000 -60.000000 176.897125 147 148 163
72.000000 -60.000000 176.542618 155 166 193
73.000000 -60.000000 176.188110 152 167 196
74.000000 -60.000000 175.833603 175 188 219
75.000000 -60.000000 175.833603 161 167 194
76.000000 -60.000000 175.833603 145 148 170
77.000000 -60.000000 175.833603 173 187 219
78.000000 -60.000000 175.833603 186 207 243
79.000000 -60.000000 175.833603 168 190 225
80.000000 -60.000000 175.833603 106 122 145
81.000000 -60.000000 175.833603 61 66 80
82.000000 -60.000000 175.833603 68 74 90
83.000000 -60.000000 175.833603 90 97 119
84.000000 -60.000000 175.833603 79 87 107
85.000000 -60.000000 175.833603 73 86 105
86.000000 -60.000000 175.833603 137 156 187
87.000000 -60.000000 176.542618 179 203 243
88.000000 -60.000000 176.897125 178 201 239
89.000000 -60.000000 177.960632 152 164 190
90.000000 -60.000000 179.733139 132 129 133
91.000000 -60.000000 180.442154 136 123 112
92.000000 -60.000000 181.151154 157 146 139
93.000000 -60.000000 181.505661 168 168 175
94.000000 -60.000000 181.505661 174 179 198
95.000000 -60.000000 181.505661 168 174 197
96.000000 -60.000000 181.505661 142 145 158
97.000000 -60.000000 181.505661 141 135 134
98.000000 -60.000000 181.505661 140 121 115
99.000000 -60.000000 181.505661 124 102 97
100.000000 -60.000000 181.505661 119 96 92
101.000000 -60.000000 181.505661 118 95 93
102.000000 -60.000000 181.151154 118 95 94
103.000000 -60.000000 181.151154 118 95 94
104.000000 -60.000000 181.151154 117 94 93
105.000000 -60.000000 181.151154 118 94 91
106.000000 -60.000000 181.151154 118 95 91
107.000000 -60.000000 181.151154 117 95 93
108.000000 -60.000000 80.117737 116 95 95
109.000000 -60.000000 78.699722 116 95 96
110.000000 -60.000000 78.699722 117 96 96
111.000000 -60.000000 76.572701 118 97 95
112.000000 -60.000000 74.800186 118 98 94
113.000000 -60.000000 75.154686 119 98 95
114.000000 -60.000000 77.281708 120 99 98
115.000000 -60.000000 78.345215 120 98 99
116.000000 -60.000000 78.699722 119 97 99
117.000000 -60.000000 79.054222 118 96 98
118.000000 -60.000000 79.054222 119 98 99
119.000000 -60.000000 79.054222 118 98 99
120.000000 -60.000000 78.699722 117 97 97
121.000000 -60.000000 67.710121 115 96 94
122.000000 -60.000000 67.355614 114 96 94
123.000000 -60.000000 65.937607 113 95 95
124.000000 -60.000000 66.292107 111 93 93
125.000000 -60.000000 68.064621 109 91 91
126.000000 -60.000000 69.482635 107 89 89
127.000000 -60.000000 73.382172 104 86 86
128.000000 -60.000000 73.736671 101 82 82
129.000000 -60.000000 75.154686 97 77 78
130.000000 -60.000000 76.218201 95 75 76
131.000000 -60.000000 76.218201 95 74 74
132.000000 -60.000000 76.218201 92 71 69
133.000000 -60.000000 75.863693 90 69 68
134.000000 -60.000000 74.800186 88 68 65
135.000000 -60.000000 74.091179 85 66 60
136.000000 -60.000000 74.091179 83 64 58
137.000000 -60.000000 74.800186 81 63 57
138.000000 -60.000000 75.509193 79 60 56
139.000000 -60.000000 77.636208 77 59 57
140.000000 -60.000000 78.699722 76 59 58
141.000000 -60.000000 79.408730 73 59 57
142.000000 -60.000000 80.117737 71 59 58
143.000000 -60.000000 80.117737 69 59 58
144.000000 -60.000000 80.117737 64 60 57
145.000000 -60.000000 80.472237 61 59 56
146.000000 -60.000000 81.535744 58 58 55
147.000000 -60.000000 85.789787 57 57 55
148.000000 -60.000000 89.689323 57 57 55
149.000000 -60.000000 92.170845 56 56 54
150.000000 -60.000000 94.297859 54 52 49
151.000000 -60.000000 95.006866 49 43 39
152.000000 -60.000000 95.715874 53 46 38
153.000000 -60.000000 95.715874 75 70 58
154.000000 -60.000000 95.361374 85 79 64
155.000000 -60.000000 95.361374 86 75 56
156.000000 -60.000000 91.107330 86 71 49
157.000000 -60.000000 88.980316 83 67 45
158.000000 -60.000000 85.080780 78 61 40
63.000000 -61.000000 177.251617 85 83 84
64.000000 -61.000000 177.960632 85 78 79
65.000000 -61.000000 177.960632 90 72 71
66.000000 -61.000000 177.606125 95 66 61
67.000000 -61.000000 177.251617 94 62 53
68.000000 -61.000000 177.251617 73 52 47
69.000000 -61.000000 177.251617 73 62 62
70.000000 -61.000000 176.897125 118 115 122
71.000000 -61.000000 176.897125 137 148 170
72.000000 -61.000000 176.542618 136 153 179
73.000000 -61.000000 176.188110 131 147 173
74.000000 -61.000000 175.833603 118 129 155
75.000000 -61.000000 175.833603 134 141 168
76.000000 -61.000000 175.833603 169 183 217
77.000000 -61.000000 175.833603 194 215 250
78.000000 -61.000000 175.833603 197 217 253
79.000000 -61.000000 175.833603 177 195 233
80.000000 -61.000000 175.833603 118 125 151
81.000000 -61.000000 175.833603 77 67 76
82.000000 -61.000000 175.833603 51 47 55
83.000000 -61.000000 175.833603 39 41 54
84.000000 -61.000000 175.479111 50 53 65
85.000000 -61.000000 175.833603 94 105 126
86.000000 -61.000000 175.833603 153 172 209
87.000000 -61.000000 175.833603 173 196 237
88.000000 -61.000000 176.897125 179 205 247
89.000000 -61.000000 177.251617 175 198 233
90.000000 -61.000000 179.024139 165 176 191
91.000000 -61.000000 179.733139 136 132 128
92.000000 -61.000000 180.442154 125 110 97
93.000000 -61.000000 181.151154 132 112 97
94.000000 -61.000000 181.505661 139 119 107
95.000000 -61.000000 181.505661 140 119 110
96.000000 -61.000000 181.505661 136 112 102
97.000000 -61.000000 181.505661 129 103 93
98.000000 -61.000000 181.505661 122 96 90
99.000000 -61.000000 181.505661 119 94 92
100.000000 -61.000000 181.505661 118 94 93
101.000000 -61.000000 181.151154 117 95 95
102.000000 -61.000000 181.151154 118 95 95
103.000000 -61.000000 181.151154 118 95 94
104.000000 -61.000000 181.151154 118 95 92
105.000000 -61.000000 181.151154 118 96 92
106.000000 -61.000000 181.151154 119 96 93
107.000000 -61.000000 81.181244 118 96 95
108.000000 -61.000000 80.117737 117 95 97
109.000000 -61.000000 80.117737 117 96 95
110.000000 -61.000000 79.763229 118 96 96
111.000000 -61.000000 79.408730 119 97 97
112.000000 -61.000000 79.408730 119 98 97
113.000000 -61.000000 79.408730 120 99 96
114.000000 -61.000000 79.408730 120 99 97
115.000000 -61.000000 79.408730 121 99 100
116.000000 -61.000000 79.408730 120 98 100
117.000000 -61.000000 79.408730 119 98 98
118.000000 -61.000000 79.408730 120 99 98
119.000000 -61.000000 79.408730 119 100 98
120.000000 -61.000000 79.408730 119 100 98
121.000000 -61.000000 79.054222 117 99 96
122.000000 -61.000000 67.355614 117 99 97
123.000000 -61.000000 65.937607 116 98 98
124.000000 -61.000000 65.937607 115 97 97
125.000000 -61.000000 66.292107 113 95 95
126.000000 -61.000000 68.064621 113 95 95
127.000000 -61.000000 69.482635 111 93 93
128.000000 -61.000000 73.382172 108 89 89
129.000000 -61.000000 75.154686 104 84 81
130.000000 -61.000000 76.218201 101 81 77
131.000000 -61.000000 77.636208 101 80 78
132.000000 -61.000000 77.990715 99 78 76
133.000000 -61.000000 78.345215 97 76 74
134.000000 -61.000000 77.990715 95 74 70
135.000000 -61.000000 77.636208 93 72 68
136.000000 -61.000000 75.863693 93 72 67
137.000000 -61.000000 75.863693 90 70 65
138.000000 -61.000000 76.927200 88 68 63
139.000000 -61.000000 78.345215 88 67 62
140.000000 -61.000000 79.408730 87 68 62
141.000000 -61.000000 80.472237 85 68 60
142.000000 -61.000000 81.181244 82 67 61
143.000000 -61.000000 81.181244 79 65 62
144.000000 -61.000000 80.472237 74 65 63
145.000000 -61.000000 80.472237 70 64 61
146.000000 -61.000000 81.535744 65 62 58
147.000000 -61.000000 86.144287 63 61 58
148.000000 -61.000000 91.107330 61 59 58
149.000000 -61.000000 94.297859 60 57 57
150.000000 -61.000000 94.652367 59 57 54
151.000000 -61.000000 95.006866 55 52 48
152.000000 -61.000000 95.715874 56 51 45
153.000000 -61.000000 95.715874 73 69 61
154.000000 -61.000000 95.361374 83 78 65
155.000000 -61.000000 95.006866 86 75 57
156.000000 -61.000000 91.461838 83 70 49
157.000000 -61.000000 91.107330 79 65 44
158.000000 -61.000000 88.980316 76 60 40
63.000000 -62.000000 174.061096 92 89 88
64.000000 -62.000000 176.897125 93 85 84
65.000000 -62.000000 176.542618 96 79 78
66.000000 -62.000000 176.542618 99 73 68
67.000000 -62.000000 176.542618 100 69 59
68.000000 -62.000000 176.542618 98 69 63
69.000000 -62.000000 176.542618 107 90 92
70.000000 -62.000000 176.897125 108 110 121
71.000000 -62.000000 176.542618 118 131 150
72.000000 -62.000000 176.542618 128 140 159
73.000000 -62.000000 176.188110 90 97 111
74.000000 -62.000000 175.833603 98 102 118
75.000000 -62.000000 175.833603 137 146 169
76.000000 -62.000000 175.833603 184 202 235
77.000000 -62.000000 175.833603 201 221 252
78.000000 -62.000000 175.833603 188 206 241
79.000000 -62.000000 175.833603 155 169 203
80.000000 -62.000000 175.833603 116 120 142
81.000000 -62.000000 175.833603 95 82 88
82.000000 -62.000000 175.833603 60 51 54
83.000000 -62.000000 175.479111 36 35 42
84.000000 -62.000000 175.479111 62 60 66
85.000000 -62.000000 175.479111 110 116 135
86.000000 -62.000000 175.833603 146 163 196
87.000000 -62.000000 175.833603 164 183 221
88.000000 -62.000000 176.542618 171 196 239
89.000000 -62.000000 177.251617 183 210 248
90.000000 -62.000000 178.669632 206 225 240
91.000000 -62.000000 179.024139 179 186 188
92.000000 -62.000000 179.733139 121 117 115
93.000000 -62.000000 180.442154 114 95 93
94.000000 -62.000000 181.151154 118 92 91
95.000000 -62.000000 181.151154 119 90 89
96.000000 -62.000000 181.151154 118 90 87
97.000000 -62.000000 181.151154 117 90 89
98.000000 -62.000000 181.151154 117 91 91
99.000000 -62.000000 181.151154 117 91 92
100.000000 -62.000000 181.151154 116 91 92
101.000000 -62.000000 181.151154 117 92 94
102.000000 -62.000000 180.796661 118 93 94
103.000000 -62.000000 180.796661 117 93 92
