ply
		format ascii 1.0
		element vertex 6236
		property float x
		property float y
		property float z
		property uchar red
		property uchar green
		property uchar blue
		end_header
68.000000 -10.000000 132.938721 32 27 31
69.000000 -10.000000 133.293213 31 26 29
70.000000 -10.000000 134.002228 31 27 29
71.000000 -10.000000 134.356735 33 29 31
72.000000 -10.000000 134.711227 31 27 28
73.000000 -10.000000 134.711227 32 31 33
74.000000 -10.000000 134.356735 35 34 38
75.000000 -10.000000 134.356735 33 32 35
76.000000 -10.000000 134.356735 31 30 32
77.000000 -10.000000 134.711227 29 28 31
78.000000 -10.000000 134.356735 30 30 33
79.000000 -10.000000 135.065735 34 34 37
80.000000 -10.000000 159.880966 36 35 39
81.000000 -10.000000 159.880966 36 35 43
82.000000 -10.000000 158.462952 29 28 35
83.000000 -10.000000 153.499908 20 21 24
84.000000 -10.000000 147.118851 35 41 62
85.000000 -10.000000 -5.672052 56 79 147
86.000000 -10.000000 -5.672052 60 90 177
87.000000 -10.000000 -5.672052 62 92 182
88.000000 -10.000000 -5.672052 63 94 183
89.000000 -10.000000 -5.672052 64 95 184
90.000000 -10.000000 -5.672052 65 97 186
91.000000 -10.000000 -5.672052 66 99 190
92.000000 -10.000000 -5.672052 66 100 191
93.000000 -10.000000 -5.672052 67 100 193
94.000000 -10.000000 -5.672052 68 101 197
95.000000 -10.000000 -5.672052 69 102 199
96.000000 -10.000000 -5.672052 70 103 200
97.000000 -10.000000 -5.672052 71 105 202
98.000000 -10.000000 -5.672052 72 106 203
99.000000 -10.000000 -5.672052 72 107 204
100.000000 -10.000000 -2.127019 73 108 207
101.000000 -10.000000 -0.709006 73 110 212
102.000000 -10.000000 -0.709006 74 110 213
112.000000 -10.000000 24.815228 89 132 246
113.000000 -10.000000 26.942247 89 135 251
114.000000 -10.000000 28.360260 90 136 252
115.000000 -10.000000 29.778273 94 139 254
117.000000 -10.000000 -5.672052 97 145 255
118.000000 -10.000000 -5.672052 97 146 254
119.000000 -10.000000 -5.672052 98 149 254
120.000000 -10.000000 -5.672052 100 153 255
121.000000 -10.000000 -5.672052 103 156 255
122.000000 -10.000000 -5.672052 102 156 255
123.000000 -10.000000 -5.672052 103 157 254
124.000000 -10.000000 -5.672052 107 160 254
125.000000 -10.000000 -5.672052 111 164 255
126.000000 -10.000000 -2.481523 114 166 255
127.000000 -10.000000 -2.481523 117 168 254
134.000000 -10.000000 20.206684 125 183 254
135.000000 -10.000000 21.270195 126 185 255
144.000000 -10.000000 92.170845 139 204 253
145.000000 -10.000000 92.879852 141 205 253
146.000000 -10.000000 93.234352 140 203 254
147.000000 -10.000000 95.361374 138 200 254
148.000000 -10.000000 98.906403 139 202 254
149.000000 -10.000000 99.969917 140 204 254
150.000000 -10.000000 102.805939 138 204 254
151.000000 -10.000000 103.160446 139 204 254
152.000000 -10.000000 103.869453 140 205 254
153.000000 -10.000000 106.350975 142 207 254
154.000000 -10.000000 107.414482 142 208 254
155.000000 -10.000000 107.768990 139 204 254
156.000000 -10.000000 108.123489 137 203 254
157.000000 -10.000000 109.541504 136 202 254
158.000000 -10.000000 109.541504 126 187 240
63.000000 -11.000000 131.875214 25 21 21
64.000000 -11.000000 131.875214 27 22 20
65.000000 -11.000000 132.229706 26 22 20
66.000000 -11.000000 132.229706 28 24 23
67.000000 -11.000000 132.229706 31 27 28
68.000000 -11.000000 132.938721 31 27 31
69.000000 -11.000000 133.293213 31 26 31
70.000000 -11.000000 134.002228 32 27 31
71.000000 -11.000000 134.356735 35 31 34
72.000000 -11.000000 134.711227 31 27 28
73.000000 -11.000000 134.356735 33 31 31
74.000000 -11.000000 134.356735 35 34 36
75.000000 -11.000000 134.356735 34 32 34
76.000000 -11.000000 134.356735 30 28 30
77.000000 -11.000000 134.356735 28 26 28
78.000000 -11.000000 134.711227 30 29 31
79.000000 -11.000000 135.065735 33 32 35
80.000000 -11.000000 162.362488 33 32 36
81.000000 -11.000000 162.362488 33 33 36
82.000000 -11.000000 158.817459 27 27 28
85.000000 -11.000000 -5.672052 56 79 143
86.000000 -11.000000 -5.672052 59 89 174
87.000000 -11.000000 -5.672052 61 91 182
88.000000 -11.000000 -5.672052 63 93 185
89.000000 -11.000000 -5.672052 63 94 185
90.000000 -11.000000 -5.672052 63 96 185
91.000000 -11.000000 -5.672052 65 99 188
92.000000 -11.000000 -5.672052 67 100 191
93.000000 -11.000000 -5.672052 67 101 192
94.000000 -11.000000 -1.772516 68 101 193
95.000000 -11.000000 -2.127019 69 101 198
96.000000 -11.000000 -2.127019 70 102 201
97.000000 -11.000000 -2.481523 72 104 203
98.000000 -11.000000 -2.127019 73 105 204
99.000000 -11.000000 -0.709006 74 107 206
100.000000 -11.000000 0.000000 75 109 209
101.000000 -11.000000 0.709006 74 111 213
102.000000 -11.000000 0.709006 75 112 215
114.000000 -11.000000 27.296749 89 134 251
115.000000 -11.000000 29.778273 92 139 253
116.000000 -11.000000 6.026555 94 142 254
117.000000 -11.000000 -5.672052 95 145 255
118.000000 -11.000000 -5.672052 95 146 254
119.000000 -11.000000 -5.672052 97 147 255
120.000000 -11.000000 -5.672052 99 149 255
121.000000 -11.000000 -5.672052 101 152 255
122.000000 -11.000000 -5.672052 102 152 255
123.000000 -11.000000 -5.672052 103 153 254
126.000000 -11.000000 -5.672052 110 163 254
147.000000 -11.000000 93.234352 136 196 254
148.000000 -11.000000 101.033424 137 198 254
149.000000 -11.000000 102.096931 135 198 254
150.000000 -11.000000 102.805939 133 197 255
151.000000 -11.000000 103.514946 135 199 254
152.000000 -11.000000 103.869453 136 201 254
153.000000 -11.000000 106.350975 136 201 254
154.000000 -11.000000 107.059982 137 202 254
155.000000 -11.000000 107.768990 136 201 254
156.000000 -11.000000 107.768990 133 198 254
157.000000 -11.000000 108.832497 130 195 254
158.000000 -11.000000 108.832497 122 183 240
63.000000 -12.000000 131.875214 24 20 18
64.000000 -12.000000 131.875214 26 22 19
65.000000 -12.000000 132.229706 26 22 20
66.000000 -12.000000 132.229706 28 24 26
67.000000 -12.000000 132.229706 29 26 29
68.000000 -12.000000 132.938721 29 27 29
69.000000 -12.000000 134.002228 31 28 31
70.000000 -12.000000 134.356735 30 26 29
71.000000 -12.000000 134.711227 32 28 29
72.000000 -12.000000 134.711227 31 27 27
73.000000 -12.000000 134.711227 33 29 29
74.000000 -12.000000 134.711227 34 31 33
75.000000 -12.000000 134.356735 33 31 35
76.000000 -12.000000 134.711227 31 29 33
77.000000 -12.000000 134.711227 28 26 28
78.000000 -12.000000 135.065735 29 26 27
79.000000 -12.000000 135.420242 32 29 31
80.000000 -12.000000 135.774750 34 31 34
81.000000 -12.000000 160.589966 34 32 36
86.000000 -12.000000 -5.672052 59 89 173
88.000000 -12.000000 -5.672052 62 94 182
89.000000 -12.000000 -5.672052 62 95 183
90.000000 -12.000000 -5.672052 63 96 184
91.000000 -12.000000 -5.672052 65 98 187
92.000000 -12.000000 -5.672052 67 99 191
93.000000 -12.000000 -2.127019 67 100 193
94.000000 -12.000000 -1.418013 67 101 194
95.000000 -12.000000 -0.709006 69 101 198
96.000000 -12.000000 0.000000 70 103 201
97.000000 -12.000000 0.709006 72 104 202
98.000000 -12.000000 1.418013 73 105 204
99.000000 -12.000000 2.481523 74 107 206
100.000000 -12.000000 3.899536 75 109 211
101.000000 -12.000000 3.899536 74 111 213
102.000000 -12.000000 4.608542 75 113 214
103.000000 -12.000000 4.608542 75 113 214
107.000000 -12.000000 2.481523 80 120 227
108.000000 -12.000000 4.608542 81 121 230
109.000000 -12.000000 5.672052 83 123 235
110.000000 -12.000000 6.381058 84 125 239
111.000000 -12.000000 5.672052 85 128 241
112.000000 -12.000000 5.672052 87 131 246
113.000000 -12.000000 5.672052 87 132 248
114.000000 -12.000000 5.672052 87 133 247
115.000000 -12.000000 6.026555 89 136 249
116.000000 -12.000000 6.026555 93 139 253
117.000000 -12.000000 -5.672052 95 143 254
119.000000 -12.000000 -5.672052 96 145 255
120.000000 -12.000000 -5.672052 98 147 255
121.000000 -12.000000 -5.672052 100 148 255
122.000000 -12.000000 -0.709006 100 148 255
123.000000 -12.000000 1.772516 101 149 255
148.000000 -12.000000 102.805939 133 195 254
149.000000 -12.000000 104.223953 131 193 254
150.000000 -12.000000 103.869453 130 192 255
151.000000 -12.000000 103.869453 130 192 254
152.000000 -12.000000 103.869453 131 193 254
153.000000 -12.000000 105.996468 131 194 255
154.000000 -12.000000 107.059982 133 196 254
155.000000 -12.000000 107.768990 134 196 254
156.000000 -12.000000 107.768990 131 194 254
157.000000 -12.000000 108.477989 127 189 254
158.000000 -12.000000 108.477989 120 179 240
63.000000 -13.000000 131.875214 23 19 16
64.000000 -13.000000 131.875214 24 20 17
65.000000 -13.000000 132.229706 24 21 19
66.000000 -13.000000 132.229706 26 24 24
67.000000 -13.000000 132.584213 27 25 26
68.000000 -13.000000 134.002228 28 25 26
69.000000 -13.000000 134.356735 29 27 29
70.000000 -13.000000 134.711227 31 29 29
71.000000 -13.000000 135.065735 30 27 24
72.000000 -13.000000 135.065735 30 27 25
73.000000 -13.000000 134.711227 33 30 31
74.000000 -13.000000 134.711227 34 33 34
75.000000 -13.000000 134.711227 32 32 33
76.000000 -13.000000 135.065735 31 30 32
77.000000 -13.000000 135.065735 29 26 27
78.000000 -13.000000 135.420242 30 26 27
79.000000 -13.000000 135.420242 31 28 30
80.000000 -13.000000 135.420242 32 31 33
89.000000 -13.000000 -5.672052 64 94 182
90.000000 -13.000000 -5.672052 65 96 184
91.000000 -13.000000 -5.672052 67 97 187
92.000000 -13.000000 -5.672052 67 98 191
93.000000 -13.000000 -2.127019 67 99 196
94.000000 -13.000000 -1.418013 68 100 198
95.000000 -13.000000 0.000000 68 101 197
96.000000 -13.000000 0.709006 70 103 197
97.000000 -13.000000 1.418013 71 104 198
98.000000 -13.000000 2.481523 72 105 201
99.000000 -13.000000 3.899536 73 106 204
100.000000 -13.000000 4.963046 74 108 208
101.000000 -13.000000 4.963046 74 111 212
102.000000 -13.000000 4.963046 75 113 214
103.000000 -13.000000 4.608542 75 113 214
104.000000 -13.000000 0.354503 77 114 215
105.000000 -13.000000 0.354503 79 116 220
106.000000 -13.000000 1.418013 82 118 223
107.000000 -13.000000 3.190529 83 120 225
108.000000 -13.000000 4.608542 81 121 229
109.000000 -13.000000 5.317549 83 122 234
110.000000 -13.000000 5.672052 84 124 237
111.000000 -13.000000 5.672052 83 127 240
112.000000 -13.000000 5.317549 85 130 243
113.000000 -13.000000 5.317549 86 131 244
114.000000 -13.000000 5.672052 88 133 245
115.000000 -13.000000 5.672052 90 135 248
116.000000 -13.000000 6.026555 92 137 252
117.000000 -13.000000 6.026555 94 140 254
120.000000 -13.000000 -5.672052 98 144 255
121.000000 -13.000000 -0.709006 99 146 255
122.000000 -13.000000 2.127019 99 147 255
123.000000 -13.000000 2.481523 99 147 254
142.000000 -13.000000 102.451439 127 183 255
143.000000 -13.000000 103.160446 127 184 255
144.000000 -13.000000 102.805939 126 184 254
145.000000 -13.000000 102.805939 126 184 254
147.000000 -13.000000 102.096931 128 188 254
148.000000 -13.000000 103.869453 129 188 254
149.000000 -13.000000 104.223953 128 186 255
150.000000 -13.000000 103.869453 128 187 254
151.000000 -13.000000 103.514946 127 186 254
152.000000 -13.000000 103.869453 128 187 254
153.000000 -13.000000 105.996468 130 190 254
154.000000 -13.000000 107.059982 131 191 254
155.000000 -13.000000 107.768990 130 190 254
156.000000 -13.000000 107.768990 128 188 254
157.000000 -13.000000 108.477989 126 185 254
158.000000 -13.000000 108.477989 119 175 240
63.000000 -14.000000 131.520706 24 19 17
64.000000 -14.000000 131.875214 25 19 18
65.000000 -14.000000 132.229706 24 20 20
66.000000 -14.000000 132.229706 26 23 24
67.000000 -14.000000 132.584213 28 24 25
68.000000 -14.000000 134.002228 28 24 25
69.000000 -14.000000 134.356735 28 25 25
70.000000 -14.000000 134.711227 32 28 28
71.000000 -14.000000 135.065735 32 29 29
72.000000 -14.000000 135.065735 31 27 28
73.000000 -14.000000 134.711227 32 30 31
74.000000 -14.000000 134.711227 34 33 33
75.000000 -14.000000 135.065735 32 31 31
76.000000 -14.000000 135.065735 30 29 29
77.000000 -14.000000 135.065735 28 25 26
78.000000 -14.000000 135.065735 29 25 26
79.000000 -14.000000 135.065735 30 29 29
89.000000 -14.000000 -5.672052 65 95 182
90.000000 -14.000000 -5.672052 66 96 185
91.000000 -14.000000 -5.672052 67 97 188
92.000000 -14.000000 -5.672052 67 98 189
93.000000 -14.000000 -5.672052 67 99 193
94.000000 -14.000000 -1.772516 68 100 195
95.000000 -14.000000 0.000000 68 102 194
96.000000 -14.000000 1.063510 70 103 196
97.000000 -14.000000 2.481523 71 104 199
98.000000 -14.000000 3.899536 72 105 199
99.000000 -14.000000 4.963046 73 106 201
100.000000 -14.000000 5.317549 74 108 206
101.000000 -14.000000 4.963046 75 110 211
102.000000 -14.000000 4.963046 76 112 213
103.000000 -14.000000 4.963046 77 113 212
104.000000 -14.000000 0.000000 78 114 213
105.000000 -14.000000 0.709006 80 116 219
106.000000 -14.000000 1.063510 82 118 224
107.000000 -14.000000 2.127019 82 119 224
108.000000 -14.000000 3.190529 82 120 229
109.000000 -14.000000 3.545033 83 121 232
110.000000 -14.000000 4.254039 85 123 235
111.000000 -14.000000 4.254039 85 125 238
112.000000 -14.000000 4.254039 87 128 242
113.000000 -14.000000 5.317549 88 130 244
114.000000 -14.000000 5.672052 89 133 244
115.000000 -14.000000 5.672052 90 135 246
116.000000 -14.000000 7.444568 91 136 250
117.000000 -14.000000 7.444568 92 137 253
121.000000 -14.000000 0.000000 101 146 255
122.000000 -14.000000 2.481523 100 147 255
123.000000 -14.000000 3.190529 100 149 254
141.000000 -14.000000 102.451439 123 178 254
142.000000 -14.000000 103.160446 126 179 255
143.000000 -14.000000 103.869453 126 181 255
144.000000 -14.000000 104.223953 123 180 254
145.000000 -14.000000 102.805939 123 180 254
146.000000 -14.000000 102.096931 124 182 254
147.000000 -14.000000 102.096931 123 182 254
148.000000 -14.000000 103.869453 125 184 254
149.000000 -14.000000 104.223953 128 185 254
150.000000 -14.000000 103.869453 128 186 254
151.000000 -14.000000 103.514946 125 184 254
152.000000 -14.000000 103.514946 126 184 254
153.000000 -14.000000 105.287460 127 186 254
154.000000 -14.000000 107.059982 127 186 254
155.000000 -14.000000 107.414482 126 184 254
156.000000 -14.000000 107.768990 125 183 254
157.000000 -14.000000 107.768990 124 182 253
158.000000 -14.000000 107.768990 116 172 240
63.000000 -15.000000 131.520706 24 19 18
64.000000 -15.000000 131.875214 24 19 19
65.000000 -15.000000 132.229706 24 20 20
66.000000 -15.000000 132.229706 26 22 23
67.000000 -15.000000 132.584213 29 25 26
68.000000 -15.000000 133.647720 29 26 27
69.000000 -15.000000 134.002228 27 24 22
70.000000 -15.000000 134.711227 30 26 25
71.000000 -15.000000 134.711227 31 27 29
72.000000 -15.000000 134.711227 31 27 28
73.000000 -15.000000 134.711227 31 28 29
74.000000 -15.000000 134.711227 32 29 30
75.000000 -15.000000 134.711227 31 28 29
76.000000 -15.000000 134.711227 31 28 29
77.000000 -15.000000 134.711227 29 25 26
78.000000 -15.000000 134.711227 30 26 27
79.000000 -15.000000 134.711227 31 29 29
88.000000 -15.000000 -5.672052 64 94 177
89.000000 -15.000000 -5.672052 65 95 180
90.000000 -15.000000 -5.672052 67 96 186
91.000000 -15.000000 -5.672052 67 97 189
92.000000 -15.000000 -5.672052 68 97 188
93.000000 -15.000000 -5.672052 68 98 189
94.000000 -15.000000 -1.772516 69 99 191
95.000000 -15.000000 0.000000 69 101 193
96.000000 -15.000000 1.418013 71 103 198
97.000000 -15.000000 3.190529 72 104 201
98.000000 -15.000000 4.608542 73 106 199
99.000000 -15.000000 5.672052 75 107 201
100.000000 -15.000000 5.672052 76 108 204
101.000000 -15.000000 4.963046 76 110 205
102.000000 -15.000000 4.963046 77 111 208
105.000000 -15.000000 0.000000 80 115 215
106.000000 -15.000000 0.709006 82 117 219
107.000000 -15.000000 1.063510 81 117 221
108.000000 -15.000000 1.063510 82 119 224
109.000000 -15.000000 1.063510 82 120 229
110.000000 -15.000000 1.418013 84 122 231
111.000000 -15.000000 1.418013 86 125 233
112.000000 -15.000000 1.418013 88 128 240
115.000000 -15.000000 5.317549 91 133 242
116.000000 -15.000000 6.026555 92 134 247
117.000000 -15.000000 6.026555 92 135 251
118.000000 -15.000000 1.772516 95 138 253
120.000000 -15.000000 0.000000 101 144 254
121.000000 -15.000000 1.772516 101 144 253
122.000000 -15.000000 2.481523 101 146 252
123.000000 -15.000000 2.127019 102 146 253
140.000000 -15.000000 101.387924 117 167 243
141.000000 -15.000000 102.451439 118 168 242
142.000000 -15.000000 103.160446 119 169 240
143.000000 -15.000000 103.160446 120 171 238
144.000000 -15.000000 102.096931 118 169 237
145.000000 -15.000000 102.096931 117 168 236
146.000000 -15.000000 102.096931 116 169 236
147.000000 -15.000000 102.096931 115 168 235
148.000000 -15.000000 102.805939 114 168 233
149.000000 -15.000000 103.514946 115 167 232
150.000000 -15.000000 102.451439 113 164 229
151.000000 -15.000000 103.160446 112 162 228
152.000000 -15.000000 103.160446 112 162 228
153.000000 -15.000000 104.578461 111 161 226
154.000000 -15.000000 106.705475 111 160 225
155.000000 -15.000000 107.414482 110 159 224
156.000000 -15.000000 107.414482 109 158 222
157.000000 -15.000000 107.768990 108 156 221
158.000000 -15.000000 107.768990 100 147 207
63.000000 -16.000000 131.520706 23 19 18
64.000000 -16.000000 131.875214 22 18 18
65.000000 -16.000000 132.229706 23 19 20
66.000000 -16.000000 132.229706 25 21 22
67.000000 -16.000000 132.584213 26 24 26
68.000000 -16.000000 133.293213 27 25 29
69.000000 -16.000000 133.647720 26 24 25
70.000000 -16.000000 134.002228 28 25 25
71.000000 -16.000000 134.711227 29 25 26
72.000000 -16.000000 134.711227 31 27 28
73.000000 -16.000000 134.711227 31 27 29
74.000000 -16.000000 134.711227 33 28 30
75.000000 -16.000000 134.711227 33 29 31
76.000000 -16.000000 134.711227 33 29 31
77.000000 -16.000000 134.356735 30 26 27
78.000000 -16.000000 134.711227 29 25 26
79.000000 -16.000000 134.356735 31 27 29
84.000000 -16.000000 143.573807 39 44 62
85.000000 -16.000000 143.573807 59 80 140
86.000000 -16.000000 -5.672052 63 90 169
87.000000 -16.000000 -5.672052 65 92 174
88.000000 -16.000000 -5.672052 66 94 173
89.000000 -16.000000 -5.672052 67 96 175
90.000000 -16.000000 -5.672052 68 97 181
91.000000 -16.000000 -5.672052 69 97 183
92.000000 -16.000000 -5.672052 69 98 183
93.000000 -16.000000 -5.672052 70 99 184
94.000000 -16.000000 -1.772516 71 99 185
95.000000 -16.000000 0.000000 72 100 185
96.000000 -16.000000 1.772516 73 102 189
97.000000 -16.000000 3.545033 72 103 193
98.000000 -16.000000 4.608542 73 103 194
99.000000 -16.000000 5.317549 75 104 195
100.000000 -16.000000 5.317549 77 105 196
101.000000 -16.000000 4.963046 77 106 197
105.000000 -16.000000 0.000000 82 112 204
106.000000 -16.000000 0.000000 82 113 206
107.000000 -16.000000 -0.354503 82 113 207
108.000000 -16.000000 -0.354503 82 114 205
109.000000 -16.000000 0.354503 81 115 206
110.000000 -16.000000 0.709006 84 117 207
111.000000 -16.000000 0.709006 87 119 208
116.000000 -16.000000 4.963046 89 125 214
117.000000 -16.000000 1.772516 92 126 216
118.000000 -16.000000 1.063510 95 129 219
119.000000 -16.000000 1.063510 97 131 219
120.000000 -16.000000 1.772516 97 132 217
121.000000 -16.000000 1.772516 95 131 214
122.000000 -16.000000 2.481523 96 132 212
138.000000 -16.000000 93.588860 113 142 184
139.000000 -16.000000 96.779388 113 142 184
140.000000 -16.000000 102.451439 115 144 185
141.000000 -16.000000 102.805939 116 146 182
142.000000 -16.000000 103.160446 116 146 180
143.000000 -16.000000 102.096931 117 146 178
144.000000 -16.000000 101.742432 118 145 176
145.000000 -16.000000 101.742432 118 145 176
146.000000 -16.000000 101.742432 119 147 179
147.000000 -16.000000 101.742432 120 148 181
148.000000 -16.000000 102.096931 120 147 180
149.000000 -16.000000 102.805939 121 147 176
150.000000 -16.000000 102.451439 123 147 175
151.000000 -16.000000 102.451439 124 147 176
152.000000 -16.000000 102.451439 127 149 179
153.000000 -16.000000 103.160446 128 150 179
154.000000 -16.000000 106.705475 130 152 180
155.000000 -16.000000 107.414482 133 155 180
156.000000 -16.000000 107.768990 134 156 180
157.000000 -16.000000 107.768990 135 157 181
158.000000 -16.000000 107.768990 128 149 169
63.000000 -17.000000 131.520706 22 18 17
64.000000 -17.000000 132.229706 21 17 15
65.000000 -17.000000 132.584213 23 19 18
66.000000 -17.000000 132.584213 25 21 22
67.000000 -17.000000 132.938721 25 23 25
68.000000 -17.000000 133.293213 26 24 28
69.000000 -17.000000 133.647720 26 25 27
70.000000 -17.000000 133.647720 28 26 26
71.000000 -17.000000 134.711227 29 26 27
72.000000 -17.000000 134.711227 33 29 29
73.000000 -17.000000 134.711227 31 27 29
74.000000 -17.000000 134.711227 32 28 32
75.000000 -17.000000 134.711227 32 29 33
76.000000 -17.000000 134.356735 31 29 33
77.000000 -17.000000 134.356735 29 26 29
78.000000 -17.000000 134.356735 30 26 27
79.000000 -17.000000 134.356735 33 31 33
84.000000 -17.000000 143.928314 46 50 63
85.000000 -17.000000 143.573807 78 91 132
86.000000 -17.000000 -5.672052 83 100 150
87.000000 -17.000000 -5.672052 83 103 153
88.000000 -17.000000 -5.672052 85 105 155
89.000000 -17.000000 -5.672052 88 107 157
90.000000 -17.000000 -5.672052 90 108 160
91.000000 -17.000000 -5.672052 92 109 161
92.000000 -17.000000 -5.672052 93 110 160
93.000000 -17.000000 -5.672052 95 113 161
94.000000 -17.000000 -1.772516 99 114 160
95.000000 -17.000000 0.354503 101 114 159
96.000000 -17.000000 1.772516 104 117 160
97.000000 -17.000000 3.545033 103 119 164
98.000000 -17.000000 4.608542 105 121 166
99.000000 -17.000000 4.963046 108 123 167
100.000000 -17.000000 4.963046 110 125 169
101.000000 -17.000000 1.418013 112 127 172
102.000000 -17.000000 0.000000 114 128 170
104.000000 -17.000000 -0.709006 120 134 171
105.000000 -17.000000 -0.709006 123 136 173
106.000000 -17.000000 -5.672052 125 139 173
107.000000 -17.000000 -5.672052 126 140 171
108.000000 -17.000000 -1.772516 127 143 170
109.000000 -17.000000 -0.354503 129 146 170
110.000000 -17.000000 0.000000 134 150 173
111.000000 -17.000000 0.000000 137 151 174
117.000000 -17.000000 0.000000 152 165 185
118.000000 -17.000000 1.063510 155 168 191
119.000000 -17.000000 1.772516 156 170 194
120.000000 -17.000000 1.772516 158 172 194
121.000000 -17.000000 1.772516 160 174 194
125.000000 -17.000000 21.979200 172 182 195
137.000000 -17.000000 95.006866 203 209 214
138.000000 -17.000000 96.779388 205 211 214
139.000000 -17.000000 101.387924 208 213 217
140.000000 -17.000000 102.805939 210 216 220
141.000000 -17.000000 103.160446 212 218 221
149.000000 -17.000000 102.805939 224 227 230
150.000000 -17.000000 135.774750 225 229 231
151.000000 -17.000000 103.160446 226 230 233
155.000000 -17.000000 106.705475 232 236 237
156.000000 -17.000000 107.414482 233 237 237
157.000000 -17.000000 107.768990 233 238 238
158.000000 -17.000000 107.768990 221 227 227
63.000000 -18.000000 132.229706 22 18 17
64.000000 -18.000000 132.938721 22 18 15
65.000000 -18.000000 132.938721 23 19 18
66.000000 -18.000000 132.938721 25 21 22
67.000000 -18.000000 132.938721 26 22 23
68.000000 -18.000000 132.938721 26 22 24
69.000000 -18.000000 133.293213 26 23 24
70.000000 -18.000000 133.647720 28 24 25
71.000000 -18.000000 134.711227 29 25 24
72.000000 -18.000000 134.711227 31 27 26
73.000000 -18.000000 134.711227 30 26 27
74.000000 -18.000000 134.711227 30 26 29
75.000000 -18.000000 134.711227 29 28 30
76.000000 -18.000000 134.356735 30 29 33
77.000000 -18.000000 134.356735 29 26 30
78.000000 -18.000000 134.711227 30 27 28
79.000000 -18.000000 134.711227 34 32 34
80.000000 -18.000000 134.711227 36 34 39
83.000000 -18.000000 143.928314 28 28 28
84.000000 -18.000000 145.700836 76 76 72
85.000000 -18.000000 143.928314 161 157 146
86.000000 -18.000000 -5.672052 180 174 157
87.000000 -18.000000 -5.672052 182 177 159
88.000000 -18.000000 -5.672052 184 179 162
89.000000 -18.000000 -5.672052 187 181 164
90.000000 -18.000000 -5.672052 191 184 168
91.000000 -18.000000 -5.672052 195 187 172
92.000000 -18.000000 -5.672052 197 189 173
93.000000 -18.000000 -5.672052 199 192 172
94.000000 -18.000000 -2.127019 204 194 176
95.000000 -18.000000 -1.063510 207 197 175
96.000000 -18.000000 0.354503 209 200 177
97.000000 -18.000000 1.772516 211 203 181
98.000000 -18.000000 3.545033 214 206 184
99.000000 -18.000000 4.254039 218 210 185
100.000000 -18.000000 2.127019 219 212 190
101.000000 -18.000000 1.418013 220 213 195
102.000000 -18.000000 0.709006 221 216 197
103.000000 -18.000000 0.000000 222 220 197
104.000000 -18.000000 -0.709006 224 223 199
105.000000 -18.000000 -5.672052 226 224 203
106.000000 -18.000000 -5.672052 228 227 205
107.000000 -18.000000 -5.672052 229 229 206
108.000000 -18.000000 -1.772516 230 232 209
109.000000 -18.000000 -0.709006 231 235 212
110.000000 -18.000000 -0.354503 233 237 216
118.000000 -18.000000 0.000000 243 245 240
119.000000 -18.000000 1.063510 243 245 242
120.000000 -18.000000 1.063510 243 245 244
121.000000 -18.000000 1.772516 244 246 245
125.000000 -18.000000 23.751717 247 248 247
126.000000 -18.000000 24.815228 248 248 248
127.000000 -18.000000 28.005756 248 248 248
137.000000 -18.000000 96.779388 251 251 251
138.000000 -18.000000 97.842896 251 251 251
139.000000 -18.000000 101.387924 251 251 251
140.000000 -18.000000 102.805939 251 251 251
141.000000 -18.000000 102.805939 251 252 252
149.000000 -18.000000 136.129242 252 252 252
150.000000 -18.000000 137.547256 252 252 253
151.000000 -18.000000 139.674271 252 252 252
157.000000 -18.000000 108.477989 251 253 251
63.000000 -19.000000 132.938721 22 18 16
64.000000 -19.000000 134.002228 22 18 15
65.000000 -19.000000 133.647720 23 19 18
66.000000 -19.000000 132.938721 23 19 20
67.000000 -19.000000 132.938721 24 20 21
68.000000 -19.000000 132.938721 24 20 21
69.000000 -19.000000 133.647720 25 21 22
70.000000 -19.000000 134.002228 26 22 23
71.000000 -19.000000 134.356735 28 24 25
72.000000 -19.000000 134.711227 30 26 26
73.000000 -19.000000 134.356735 28 25 28
74.000000 -19.000000 134.711227 28 26 30
75.000000 -19.000000 134.711227 28 27 31
76.000000 -19.000000 134.711227 29 29 32
77.000000 -19.000000 134.711227 29 26 28
78.000000 -19.000000 135.420242 29 26 27
79.000000 -19.000000 135.065735 32 29 31
80.000000 -19.000000 135.420242 36 33 36
82.000000 -19.000000 145.700836 32 29 31
83.000000 -19.000000 145.700836 32 30 29
84.000000 -19.000000 146.055344 97 94 81
85.000000 -19.000000 145.700836 212 198 164
86.000000 -19.000000 -5.672052 238 220 176
87.000000 -19.000000 -5.672052 238 221 175
88.000000 -19.000000 -5.672052 239 222 179
89.000000 -19.000000 -5.672052 241 224 179
90.000000 -19.000000 -5.672052 243 226 180
91.000000 -19.000000 -5.672052 244 227 184
92.000000 -19.000000 -5.672052 246 228 187
93.000000 -19.000000 -5.672052 247 230 188
94.000000 -19.000000 -5.672052 249 232 189
100.000000 -19.000000 1.418013 253 240 200
101.000000 -19.000000 1.418013 250 241 204
102.000000 -19.000000 1.418013 250 242 206
103.000000 -19.000000 0.000000 251 246 206
104.000000 -19.000000 -5.672052 251 247 207
105.000000 -19.000000 -5.672052 250 248 211
106.000000 -19.000000 -5.672052 250 250 213
107.000000 -19.000000 -5.672052 249 251 215
108.000000 -19.000000 -0.709006 250 252 220
109.000000 -19.000000 -0.354503 250 253 225
119.000000 -19.000000 0.000000 252 252 250
121.000000 -19.000000 3.899536 252 252 252
123.000000 -19.000000 11.344104 252 252 252
124.000000 -19.000000 17.016155 252 252 252
125.000000 -19.000000 21.979200 252 252 252
126.000000 -19.000000 23.042711 252 252 252
127.000000 -19.000000 28.005756 252 252 252
128.000000 -19.000000 33.323303 252 252 252
137.000000 -19.000000 96.779388 252 252 252
138.000000 -19.000000 98.197395 252 252 252
139.000000 -19.000000 102.096931 252 252 252
140.000000 -19.000000 103.160446 252 252 252
141.000000 -19.000000 103.160446 252 252 252
149.000000 -19.000000 137.547256 252 252 252
150.000000 -19.000000 139.674271 252 252 252
151.000000 -19.000000 141.092285 252 252 252
152.000000 -19.000000 141.092285 252 252 252
157.000000 -19.000000 113.086533 250 253 251
63.000000 -20.000000 134.002228 21 17 16
64.000000 -20.000000 134.711227 22 18 15
65.000000 -20.000000 134.002228 22 18 17
66.000000 -20.000000 134.002228 22 18 19
67.000000 -20.000000 133.647720 23 19 20
68.000000 -20.000000 133.647720 23 19 20
69.000000 -20.000000 134.002228 24 20 20
70.000000 -20.000000 134.002228 25 21 21
71.000000 -20.000000 134.356735 28 24 24
72.000000 -20.000000 134.356735 29 25 26
73.000000 -20.000000 134.356735 27 23 26
74.000000 -20.000000 134.711227 28 24 28
75.000000 -20.000000 134.711227 29 27 30
76.000000 -20.000000 135.065735 30 29 31
77.000000 -20.000000 135.420242 29 26 28
78.000000 -20.000000 136.129242 29 26 27
79.000000 -20.000000 135.774750 30 27 30
82.000000 -20.000000 146.409836 34 30 34
83.000000 -20.000000 146.409836 34 31 33
84.000000 -20.000000 146.409836 101 96 87
85.000000 -20.000000 146.055344 216 201 169
86.000000 -20.000000 -5.672052 240 222 179
89.000000 -20.000000 -5.672052 245 227 182
90.000000 -20.000000 -5.672052 246 228 179
91.000000 -20.000000 -5.672052 247 229 182
102.000000 -20.000000 0.354503 252 243 204
103.000000 -20.000000 -5.672052 253 245 203
104.000000 -20.000000 -5.672052 253 246 205
105.000000 -20.000000 -5.672052 251 248 211
106.000000 -20.000000 -5.672052 251 250 212
107.000000 -20.000000 -5.672052 251 251 211
108.000000 -20.000000 -0.709006 251 251 217
109.000000 -20.000000 1.418013 250 252 221
121.000000 -20.000000 10.989600 252 252 252
122.000000 -20.000000 11.344104 252 252 252
123.000000 -20.000000 11.698607 252 252 252
124.000000 -20.000000 12.762116 252 252 252
125.000000 -20.000000 15.598143 252 252 252
127.000000 -20.000000 28.005756 252 252 252
128.000000 -20.000000 35.450325 252 252 252
129.000000 -20.000000 36.513836 252 252 252
137.000000 -20.000000 96.424881 252 252 252
138.000000 -20.000000 98.197395 252 252 250
139.000000 -20.000000 102.096931 252 252 250
140.000000 -20.000000 103.869453 252 252 251
141.000000 -20.000000 104.223953 252 252 252
149.000000 -20.000000 137.901764 252 253 250
150.000000 -20.000000 141.446793 252 253 250
151.000000 -20.000000 141.801300 251 253 251
152.000000 -20.000000 141.801300 250 253 252
156.000000 -20.000000 138.965271 248 252 251
157.000000 -20.000000 138.965271 248 252 251
63.000000 -21.000000 134.711227 20 16 16
64.000000 -21.000000 135.065735 21 17 15
65.000000 -21.000000 134.711227 21 17 17
66.000000 -21.000000 134.356735 22 18 19
67.000000 -21.000000 134.002228 23 19 20
68.000000 -21.000000 134.002228 24 20 21
69.000000 -21.000000 134.002228 23 19 19
70.000000 -21.000000 134.356735 24 20 19
71.000000 -21.000000 134.356735 27 23 23
72.000000 -21.000000 134.711227 27 23 24
73.000000 -21.000000 134.711227 27 23 24
74.000000 -21.000000 135.065735 28 24 26
75.000000 -21.000000 135.420242 31 27 30
76.000000 -21.000000 135.774750 31 27 31
77.000000 -21.000000 135.774750 30 26 28
78.000000 -21.000000 136.483749 30 26 27
79.000000 -21.000000 136.483749 30 27 28
80.000000 -21.000000 136.483749 33 29 31
82.000000 -21.000000 146.764343 34 30 31
83.000000 -21.000000 146.764343 33 31 30
84.000000 -21.000000 146.409836 103 97 86
85.000000 -21.000000 146.409836 217 201 169
102.000000 -21.000000 -5.672052 254 242 200
103.000000 -21.000000 -5.672052 254 245 203
104.000000 -21.000000 -5.672052 254 246 205
105.000000 -21.000000 -5.672052 252 248 208
106.000000 -21.000000 -5.672052 252 249 210
107.000000 -21.000000 -0.709006 251 251 213
108.000000 -21.000000 2.836026 251 251 215
109.000000 -21.000000 6.026555 249 252 217
110.000000 -21.000000 5.672052 249 253 224
121.000000 -21.000000 10.989600 252 252 252
122.000000 -21.000000 11.344104 252 252 252
123.000000 -21.000000 12.407614 252 252 252
124.000000 -21.000000 12.762116 252 252 252
128.000000 -21.000000 35.450325 252 252 252
129.000000 -21.000000 36.513836 252 252 252
137.000000 -21.000000 95.361374 252 252 252
138.000000 -21.000000 97.842896 252 252 251
139.000000 -21.000000 102.096931 252 252 251
140.000000 -21.000000 104.223953 252 252 252
141.000000 -21.000000 105.996468 252 252 252
142.000000 -21.000000 106.350975 252 252 252
149.000000 -21.000000 137.901764 252 252 251
150.000000 -21.000000 141.446793 252 252 251
151.000000 -21.000000 142.155807 251 253 251
152.000000 -21.000000 142.155807 249 253 251
156.000000 -21.000000 139.674271 246 253 250
157.000000 -21.000000 139.674271 245 252 250
63.000000 -22.000000 135.774750 20 16 16
64.000000 -22.000000 135.774750 21 17 17
65.000000 -22.000000 135.420242 22 18 18
66.000000 -22.000000 135.065735 23 19 20
67.000000 -22.000000 134.356735 23 19 20
68.000000 -22.000000 134.356735 24 19 20
69.000000 -22.000000 134.356735 23 19 19
70.000000 -22.000000 134.356735 24 20 20
71.000000 -22.000000 134.711227 26 22 23
72.000000 -22.000000 135.065735 27 23 24
73.000000 -22.000000 135.065735 27 23 24
74.000000 -22.000000 135.420242 28 24 25
75.000000 -22.000000 135.774750 30 26 27
76.000000 -22.000000 136.129242 30 26 28
77.000000 -22.000000 136.129242 30 26 28
78.000000 -22.000000 136.838257 30 27 28
79.000000 -22.000000 137.192749 31 27 28
80.000000 -22.000000 137.547256 32 29 30
81.000000 -22.000000 146.055344 36 32 33
82.000000 -22.000000 146.409836 34 30 31
83.000000 -22.000000 146.764343 34 31 28
84.000000 -22.000000 146.409836 105 97 81
85.000000 -22.000000 146.409836 218 201 163
102.000000 -22.000000 -5.672052 254 242 196
103.000000 -22.000000 -5.672052 253 244 203
104.000000 -22.000000 -5.672052 253 246 206
105.000000 -22.000000 -5.672052 252 247 205
106.000000 -22.000000 -1.418013 252 248 208
107.000000 -22.000000 1.772516 252 249 213
108.000000 -22.000000 9.926091 251 250 214
109.000000 -22.000000 10.989600 249 251 217
110.000000 -22.000000 11.344104 250 252 224
111.000000 -22.000000 13.116620 250 251 229
112.000000 -22.000000 14.889136 250 251 232
121.000000 -22.000000 11.344104 252 252 251
122.000000 -22.000000 12.053110 252 252 251
123.000000 -22.000000 12.407614 252 252 251
124.000000 -22.000000 12.407614 252 252 252
129.000000 -22.000000 35.450325 252 252 252
138.000000 -22.000000 97.842896 252 252 252
139.000000 -22.000000 101.742432 252 252 252
140.000000 -22.000000 103.869453 252 252 252
141.000000 -22.000000 106.350975 252 252 252
142.000000 -22.000000 107.768990 252 252 252
143.000000 -22.000000 109.186996 252 252 252
144.000000 -22.000000 113.441040 252 252 252
150.000000 -22.000000 141.446793 251 252 250
151.000000 -22.000000 142.864807 250 253 249
152.000000 -22.000000 142.864807 249 253 249
153.000000 -22.000000 143.928314 248 253 248
63.000000 -23.000000 135.420242 20 16 17
64.000000 -23.000000 135.420242 21 17 16
65.000000 -23.000000 135.420242 21 17 17
66.000000 -23.000000 135.065735 22 18 19
67.000000 -23.000000 135.065735 23 18 19
68.000000 -23.000000 134.356735 25 18 20
69.000000 -23.000000 134.356735 24 19 19
70.000000 -23.000000 134.356735 24 20 19
71.000000 -23.000000 135.065735 26 22 22
72.000000 -23.000000 135.420242 27 23 24
73.000000 -23.000000 135.420242 28 24 25
74.000000 -23.000000 135.774750 29 24 26
75.000000 -23.000000 136.129242 30 25 28
76.000000 -23.000000 136.129242 30 27 27
77.000000 -23.000000 136.483749 30 27 27
78.000000 -23.000000 136.838257 31 27 28
79.000000 -23.000000 137.547256 31 28 29
80.000000 -23.000000 140.737793 32 30 31
81.000000 -23.000000 146.055344 35 33 34
82.000000 -23.000000 146.409836 33 30 30
83.000000 -23.000000 146.409836 34 32 27
84.000000 -23.000000 146.409836 106 99 78
85.000000 -23.000000 146.409836 219 201 157
100.000000 -23.000000 -5.672052 255 239 190
101.000000 -23.000000 -5.672052 254 239 194
102.000000 -23.000000 -5.672052 253 240 196
103.000000 -23.000000 -5.672052 252 242 200
104.000000 -23.000000 -5.672052 253 244 204
105.000000 -23.000000 -5.672052 253 245 204
106.000000 -23.000000 -1.418013 253 246 205
107.000000 -23.000000 9.926091 252 247 210
108.000000 -23.000000 10.989600 251 248 212
109.000000 -23.000000 11.344104 250 249 212
110.000000 -23.000000 13.116620 250 251 215
111.000000 -23.000000 15.952646 249 251 218
112.000000 -23.000000 16.307150 250 252 222
122.000000 -23.000000 11.698607 252 253 248
123.000000 -23.000000 12.053110 252 253 249
124.000000 -23.000000 12.407614 252 252 250
138.000000 -23.000000 97.842896 252 252 252
139.000000 -23.000000 101.742432 252 252 251
140.000000 -23.000000 103.869453 252 252 250
141.000000 -23.000000 106.350975 252 253 249
142.000000 -23.000000 107.768990 252 253 249
143.000000 -23.000000 109.186996 252 253 249
144.000000 -23.000000 113.441040 252 253 249
145.000000 -23.000000 119.467590 252 253 249
151.000000 -23.000000 142.864807 248 252 246
152.000000 -23.000000 146.055344 247 252 246
153.000000 -23.000000 169.807053 246 252 245
154.000000 -23.000000 169.807053 244 252 245
155.000000 -23.000000 142.864807 245 252 247
63.000000 -24.000000 134.002228 19 15 14
64.000000 -24.000000 135.420242 19 15 13
65.000000 -24.000000 135.065735 20 16 15
66.000000 -24.000000 135.065735 21 17 18
67.000000 -24.000000 135.065735 23 18 19
68.000000 -24.000000 134.356735 24 19 21
69.000000 -24.000000 134.356735 24 19 20
70.000000 -24.000000 134.711227 25 21 22
71.000000 -24.000000 135.420242 26 22 22
72.000000 -24.000000 135.774750 26 22 23
73.000000 -24.000000 135.774750 29 25 27
74.000000 -24.000000 136.129242 30 26 28
75.000000 -24.000000 136.129242 30 25 27
76.000000 -24.000000 136.483749 29 26 25
77.000000 -24.000000 136.483749 28 26 24
78.000000 -24.000000 136.838257 30 26 27
79.000000 -24.000000 137.547256 32 28 29
80.000000 -24.000000 141.092285 34 30 32
81.000000 -24.000000 146.055344 38 34 38
82.000000 -24.000000 146.409836 34 31 32
83.000000 -24.000000 146.409836 35 32 28
84.000000 -24.000000 146.409836 108 100 81
85.000000 -24.000000 146.409836 220 201 160
100.000000 -24.000000 -5.672052 254 237 188
101.000000 -24.000000 -5.672052 254 238 196
102.000000 -24.000000 -5.672052 254 238 199
103.000000 -24.000000 -5.672052 253 239 197
104.000000 -24.000000 -5.672052 253 241 199
108.000000 -24.000000 10.989600 251 246 207
109.000000 -24.000000 11.344104 251 248 207
110.000000 -24.000000 13.116620 251 250 208
111.000000 -24.000000 16.307150 250 251 210
112.000000 -24.000000 17.016155 250 251 215
123.000000 -24.000000 12.407614 252 253 248
124.000000 -24.000000 12.407614 252 253 248
138.000000 -24.000000 97.842896 252 252 250
139.000000 -24.000000 101.742432 252 253 249
140.000000 -24.000000 103.869453 252 253 248
141.000000 -24.000000 105.996468 252 253 248
142.000000 -24.000000 106.350975 252 253 248
145.000000 -24.000000 119.467590 249 253 245
146.000000 -24.000000 164.489502 249 252 243
147.000000 -24.000000 164.489502 249 252 243
151.000000 -24.000000 141.446793 246 251 244
152.000000 -24.000000 168.034531 246 251 245
153.000000 -24.000000 169.807053 244 251 244
154.000000 -24.000000 169.807053 242 251 243
155.000000 -24.000000 168.034531 241 251 243
63.000000 -25.000000 133.293213 19 15 13
64.000000 -25.000000 134.002228 19 15 14
65.000000 -25.000000 134.002228 21 17 16
66.000000 -25.000000 134.002228 21 17 18
67.000000 -25.000000 133.647720 22 18 19
68.000000 -25.000000 133.293213 23 19 20
69.000000 -25.000000 134.002228 23 19 20
70.000000 -25.000000 134.711227 24 20 21
71.000000 -25.000000 135.774750 25 21 22
72.000000 -25.000000 136.129242 26 22 23
73.000000 -25.000000 136.129242 29 25 28
74.000000 -25.000000 136.129242 30 27 30
75.000000 -25.000000 136.129242 28 26 26
76.000000 -25.000000 136.483749 27 26 24
77.000000 -25.000000 136.483749 28 25 24
78.000000 -25.000000 136.838257 30 26 28
79.000000 -25.000000 137.192749 32 27 29
80.000000 -25.000000 141.092285 32 29 30
81.000000 -25.000000 146.055344 36 33 36
82.000000 -25.000000 146.409836 34 32 35
83.000000 -25.000000 146.409836 34 33 30
84.000000 -25.000000 146.764343 109 100 84
85.000000 -25.000000 146.764343 221 200 162
98.000000 -25.000000 -5.672052 253 233 178
99.000000 -25.000000 -5.672052 252 234 180
100.000000 -25.000000 -5.672052 252 236 186
101.000000 -25.000000 -5.672052 252 237 192
102.000000 -25.000000 -5.672052 250 235 197
103.000000 -25.000000 -5.672052 249 234 197
104.000000 -25.000000 -5.672052 251 237 195
108.000000 -25.000000 10.280594 253 245 201
109.000000 -25.000000 11.344104 252 247 202
110.000000 -25.000000 13.825626 251 249 203
111.000000 -25.000000 17.016155 250 250 206
112.000000 -25.000000 18.079666 250 251 208
113.000000 -25.000000 18.079666 249 252 213
138.000000 -25.000000 97.842896 252 253 248
139.000000 -25.000000 103.160446 252 253 248
140.000000 -25.000000 105.996468 252 253 248
141.000000 -25.000000 106.350975 252 253 248
142.000000 -25.000000 106.350975 251 252 245
144.000000 -25.000000 164.134995 247 250 235
145.000000 -25.000000 164.489502 246 250 234
146.000000 -25.000000 164.489502 247 250 235
147.000000 -25.000000 165.198517 247 251 236
148.000000 -25.000000 165.198517 248 251 236
151.000000 -25.000000 166.971024 246 251 244
152.000000 -25.000000 167.680038 245 250 242
153.000000 -25.000000 168.034531 243 250 241
154.000000 -25.000000 168.034531 241 251 240
155.000000 -25.000000 167.325531 239 250 238
63.000000 -26.000000 132.938721 18 14 15
64.000000 -26.000000 132.938721 20 16 16
65.000000 -26.000000 132.584213 21 17 17
66.000000 -26.000000 132.584213 20 16 15
67.000000 -26.000000 132.584213 20 16 17
68.000000 -26.000000 132.938721 22 18 19
69.000000 -26.000000 133.293213 22 18 18
70.000000 -26.000000 135.065735 23 19 19
71.000000 -26.000000 136.129242 25 21 20
72.000000 -26.000000 136.129242 25 21 21
73.000000 -26.000000 136.129242 26 23 24
74.000000 -26.000000 136.129242 27 25 26
75.000000 -26.000000 136.129242 27 25 24
76.000000 -26.000000 136.129242 27 25 23
77.000000 -26.000000 136.129242 28 24 24
78.000000 -26.000000 136.483749 30 26 26
79.000000 -26.000000 136.838257 31 27 28
80.000000 -26.000000 141.092285 31 28 29
81.000000 -26.000000 146.055344 35 32 34
82.000000 -26.000000 146.409836 34 32 33
83.000000 -26.000000 146.764343 34 33 31
84.000000 -26.000000 146.764343 108 100 83
85.000000 -26.000000 147.118851 219 199 163
86.000000 -26.000000 146.764343 240 218 176
97.000000 -26.000000 -5.672052 252 231 181
98.000000 -26.000000 -5.672052 252 232 176
99.000000 -26.000000 -5.672052 251 234 178
100.000000 -26.000000 -5.672052 250 234 183
101.000000 -26.000000 -5.672052 241 227 180
102.000000 -26.000000 -5.672052 211 201 167
103.000000 -26.000000 -5.672052 189 182 161
104.000000 -26.000000 -5.672052 204 197 173
109.000000 -26.000000 9.926091 252 246 199
110.000000 -26.000000 12.407614 252 248 206
111.000000 -26.000000 15.952646 251 249 210
112.000000 -26.000000 17.016155 251 250 209
138.000000 -26.000000 163.425995 252 253 247
139.000000 -26.000000 164.134995 252 253 246
140.000000 -26.000000 164.134995 252 252 248
141.000000 -26.000000 164.489502 251 252 246
142.000000 -26.000000 164.489502 247 249 233
143.000000 -26.000000 164.489502 240 238 204
144.000000 -26.000000 164.489502 236 232 187
145.000000 -26.000000 164.844009 235 232 189
146.000000 -26.000000 165.198517 237 238 200
147.000000 -26.000000 165.553009 243 247 220
148.000000 -26.000000 166.262024 248 250 231
149.000000 -26.000000 166.616531 247 249 237
150.000000 -26.000000 166.971024 245 250 240
151.000000 -26.000000 167.325531 245 250 240
152.000000 -26.000000 167.325531 244 249 237
153.000000 -26.000000 167.325531 242 249 235
154.000000 -26.000000 166.971024 240 248 235
155.000000 -26.000000 166.262024 237 248 234
156.000000 -26.000000 165.198517 236 247 236
63.000000 -27.000000 132.584213 17 15 16
64.000000 -27.000000 132.584213 18 15 16
65.000000 -27.000000 132.229706 19 16 16
66.000000 -27.000000 131.875214 18 15 14
67.000000 -27.000000 132.229706 20 16 16
68.000000 -27.000000 132.584213 21 17 18
69.000000 -27.000000 132.938721 22 18 17
70.000000 -27.000000 135.065735 22 18 16
71.000000 -27.000000 136.129242 24 20 17
72.000000 -27.000000 136.129242 24 21 17
73.000000 -27.000000 136.129242 25 21 20
74.000000 -27.000000 136.129242 27 24 23
75.000000 -27.000000 136.129242 26 24 22
76.000000 -27.000000 136.129242 25 24 20
77.000000 -27.000000 136.129242 27 24 22
78.000000 -27.000000 136.129242 29 25 24
79.000000 -27.000000 136.838257 31 27 27
80.000000 -27.000000 140.737793 32 29 30
81.000000 -27.000000 146.055344 36 33 34
82.000000 -27.000000 146.764343 35 33 33
83.000000 -27.000000 146.764343 34 34 31
84.000000 -27.000000 147.118851 108 101 84
85.000000 -27.000000 147.118851 217 199 162
86.000000 -27.000000 147.118851 237 216 174
95.000000 -27.000000 -5.672052 248 229 178
96.000000 -27.000000 -5.672052 249 229 182
97.000000 -27.000000 -5.672052 250 229 182
98.000000 -27.000000 -5.672052 251 231 179
99.000000 -27.000000 -5.672052 251 233 178
101.000000 -27.000000 -5.672052 194 183 152
102.000000 -27.000000 -5.672052 114 115 121
103.000000 -27.000000 -5.672052 94 104 130
104.000000 -27.000000 -5.672052 127 139 162
137.000000 -27.000000 163.425995 251 253 246
138.000000 -27.000000 163.780502 251 253 244
139.000000 -27.000000 164.134995 251 253 244
140.000000 -27.000000 164.489502 251 252 244
141.000000 -27.000000 164.489502 248 249 237
142.000000 -27.000000 164.844009 235 231 187
143.000000 -27.000000 164.844009 232 217 140
144.000000 -27.000000 165.198517 239 230 160
145.000000 -27.000000 165.198517 239 233 180
146.000000 -27.000000 165.553009 229 221 149
147.000000 -27.000000 166.262024 234 230 172
148.000000 -27.000000 166.616531 244 246 217
149.000000 -27.000000 167.325531 244 248 226
150.000000 -27.000000 167.325531 242 248 227
151.000000 -27.000000 167.680038 242 247 230
152.000000 -27.000000 167.325531 242 247 232
153.000000 -27.000000 166.971024 241 246 232
154.000000 -27.000000 166.616531 238 244 230
155.000000 -27.000000 165.907516 236 244 231
156.000000 -27.000000 165.198517 235 245 233
157.000000 -27.000000 162.362488 234 244 233
63.000000 -28.000000 132.229706 17 15 15
64.000000 -28.000000 132.229706 17 16 14
65.000000 -28.000000 131.875214 18 16 15
66.000000 -28.000000 131.520706 17 15 14
67.000000 -28.000000 131.875214 19 16 16
68.000000 -28.000000 131.875214 21 17 18
69.000000 -28.000000 132.584213 22 18 17
70.000000 -28.000000 134.711227 22 18 17
71.000000 -28.000000 135.774750 22 18 17
72.000000 -28.000000 136.129242 23 20 18
73.000000 -28.000000 136.129242 25 21 20
74.000000 -28.000000 136.129242 27 23 22
75.000000 -28.000000 136.129242 26 22 21
76.000000 -28.000000 135.774750 26 22 20
77.000000 -28.000000 136.129242 26 23 22
78.000000 -28.000000 136.129242 29 25 26
79.000000 -28.000000 136.483749 31 27 29
80.000000 -28.000000 140.737793 34 30 32
81.000000 -28.000000 146.409836 36 33 35
82.000000 -28.000000 146.764343 35 33 33
83.000000 -28.000000 147.118851 38 36 32
84.000000 -28.000000 147.473343 111 104 85
85.000000 -28.000000 147.473343 216 198 160
95.000000 -28.000000 -5.672052 248 226 177
96.000000 -28.000000 -5.672052 249 227 179
97.000000 -28.000000 -5.672052 249 229 183
98.000000 -28.000000 -5.672052 248 230 183
101.000000 -28.000000 153.145401 135 129 125
102.000000 -28.000000 153.145401 65 73 109
103.000000 -28.000000 153.145401 68 83 127
104.000000 -28.000000 152.790894 95 116 160
105.000000 -28.000000 152.436401 120 134 159
137.000000 -28.000000 163.425995 250 252 240
138.000000 -28.000000 163.780502 250 251 240
139.000000 -28.000000 164.134995 249 251 239
140.000000 -28.000000 164.489502 250 251 239
141.000000 -28.000000 164.844009 241 240 218
142.000000 -28.000000 165.198517 219 208 137
143.000000 -28.000000 165.198517 226 206 106
144.000000 -28.000000 165.198517 235 222 142
145.000000 -28.000000 165.553009 235 226 160
146.000000 -28.000000 165.553009 226 212 121
147.000000 -28.000000 166.262024 222 210 125
148.000000 -28.000000 166.971024 240 238 198
149.000000 -28.000000 167.680038 242 247 222
150.000000 -28.000000 168.034531 240 246 222
151.000000 -28.000000 168.389038 239 245 224
152.000000 -28.000000 168.034531 238 244 230
153.000000 -28.000000 166.971024 237 243 229
154.000000 -28.000000 166.262024 236 242 227
155.000000 -28.000000 165.907516 235 242 225
156.000000 -28.000000 164.844009 234 243 227
157.000000 -28.000000 162.362488 234 242 231
63.000000 -29.000000 131.875214 19 16 14
64.000000 -29.000000 131.875214 18 15 11
65.000000 -29.000000 131.520706 18 15 12
66.000000 -29.000000 131.520706 18 14 11
67.000000 -29.000000 131.520706 19 15 13
68.000000 -29.000000 131.875214 20 16 16
69.000000 -29.000000 132.229706 21 17 17
70.000000 -29.000000 133.647720 22 18 19
71.000000 -29.000000 135.420242 23 19 20
72.000000 -29.000000 135.774750 23 19 20
73.000000 -29.000000 136.129242 24 20 21
