ply
		format ascii 1.0
		element vertex 6656
		property float x
		property float y
		property float z
		property uchar red
		property uchar green
		property uchar blue
		end_header
138.000000 -7.000000 93.588860 129 168 242
139.000000 -7.000000 98.551903 127 165 236
140.000000 -7.000000 103.514946 124 161 230
141.000000 -7.000000 108.832497 122 157 222
142.000000 -7.000000 113.441040 118 152 216
143.000000 -7.000000 119.113091 114 146 208
144.000000 -7.000000 124.785141 111 141 197
145.000000 -7.000000 126.912163 106 135 187
146.000000 -7.000000 128.330170 100 128 177
147.000000 -7.000000 130.457199 93 121 168
148.000000 -7.000000 131.166199 71 92 131
149.000000 -7.000000 132.584213 36 42 60
150.000000 -7.000000 135.065735 29 32 38
151.000000 -7.000000 136.129242 27 30 33
152.000000 -7.000000 137.192749 25 27 28
153.000000 -7.000000 139.674271 26 27 30
154.000000 -7.000000 141.092285 29 29 30
155.000000 -7.000000 141.446793 37 37 33
156.000000 -7.000000 141.801300 73 74 69
157.000000 -7.000000 141.801300 92 93 90
158.000000 -7.000000 141.801300 69 68 70
63.000000 -8.000000 193.204269 185 187 186
64.000000 -8.000000 193.558777 146 150 148
65.000000 -8.000000 193.204269 44 48 54
66.000000 -8.000000 -5.672052 51 65 103
67.000000 -8.000000 -5.672052 57 83 143
68.000000 -8.000000 -2.127019 56 84 147
69.000000 -8.000000 -2.127019 57 86 148
70.000000 -8.000000 -2.127019 58 87 149
71.000000 -8.000000 -2.127019 59 89 152
72.000000 -8.000000 -5.672052 60 91 156
73.000000 -8.000000 -5.672052 62 90 157
74.000000 -8.000000 -0.709006 64 91 158
75.000000 -8.000000 0.354503 64 92 158
76.000000 -8.000000 1.063510 64 94 159
77.000000 -8.000000 3.190529 66 94 160
78.000000 -8.000000 3.545033 68 95 162
79.000000 -8.000000 4.608542 69 96 164
80.000000 -8.000000 4.963046 70 97 165
81.000000 -8.000000 4.963046 70 97 165
82.000000 -8.000000 6.381058 68 95 161
83.000000 -8.000000 9.926091 60 82 134
84.000000 -8.000000 10.635098 51 62 90
85.000000 -8.000000 10.280594 50 56 74
86.000000 -8.000000 10.280594 58 68 98
87.000000 -8.000000 9.926091 74 93 147
88.000000 -8.000000 6.735562 82 108 173
89.000000 -8.000000 6.735562 84 111 178
90.000000 -8.000000 6.735562 85 113 181
91.000000 -8.000000 6.735562 85 115 185
92.000000 -8.000000 6.735562 87 117 188
93.000000 -8.000000 7.090065 89 119 191
94.000000 -8.000000 7.799071 90 120 193
95.000000 -8.000000 10.635098 90 121 194
96.000000 -8.000000 10.989600 91 123 196
97.000000 -8.000000 10.989600 95 127 200
101.000000 -8.000000 64.165085 101 136 209
102.000000 -8.000000 64.874092 101 136 212
103.000000 -8.000000 64.874092 102 137 213
107.000000 -8.000000 1.063510 111 147 223
108.000000 -8.000000 3.899536 114 151 227
109.000000 -8.000000 4.608542 117 153 230
110.000000 -8.000000 3.899536 121 157 234
111.000000 -8.000000 -1.063510 121 157 234
112.000000 -8.000000 -1.063510 122 157 235
113.000000 -8.000000 -5.672052 123 159 237
114.000000 -8.000000 -5.672052 125 161 238
115.000000 -8.000000 -5.672052 127 163 241
116.000000 -8.000000 -5.672052 130 166 244
117.000000 -8.000000 3.899536 131 167 245
118.000000 -8.000000 5.672052 132 168 246
119.000000 -8.000000 5.672052 134 171 248
120.000000 -8.000000 5.672052 135 172 249
121.000000 -8.000000 5.672052 135 173 250
122.000000 -8.000000 6.026555 137 174 250
123.000000 -8.000000 56.720520 136 172 247
124.000000 -8.000000 58.493034 137 171 243
125.000000 -8.000000 61.329060 138 171 242
126.000000 -8.000000 62.392570 139 175 247
127.000000 -8.000000 62.392570 138 176 250
128.000000 -8.000000 62.392570 140 178 253
134.000000 -8.000000 69.482635 137 175 253
135.000000 -8.000000 69.482635 134 173 251
136.000000 -8.000000 73.027672 132 171 247
137.000000 -8.000000 90.043823 129 169 241
138.000000 -8.000000 92.879852 128 167 238
139.000000 -8.000000 97.488396 123 162 230
140.000000 -8.000000 102.451439 119 156 222
141.000000 -8.000000 107.414482 116 151 212
142.000000 -8.000000 112.023026 113 146 205
143.000000 -8.000000 115.922562 109 141 198
144.000000 -8.000000 121.240112 107 138 192
145.000000 -8.000000 125.139648 104 134 186
146.000000 -8.000000 127.266663 99 128 178
147.000000 -8.000000 130.102692 93 120 168
148.000000 -8.000000 131.166199 73 90 129
149.000000 -8.000000 132.584213 38 42 57
150.000000 -8.000000 135.420242 30 32 37
151.000000 -8.000000 136.129242 28 29 36
152.000000 -8.000000 137.547256 25 26 32
153.000000 -8.000000 140.028778 27 27 31
154.000000 -8.000000 141.092285 30 29 32
155.000000 -8.000000 141.446793 38 38 37
156.000000 -8.000000 141.801300 73 74 70
157.000000 -8.000000 141.801300 92 93 90
158.000000 -8.000000 141.801300 69 68 71
63.000000 -9.000000 193.558777 186 188 187
64.000000 -9.000000 193.558777 162 165 164
65.000000 -9.000000 193.558777 53 55 63
66.000000 -9.000000 -1.772516 52 65 103
67.000000 -9.000000 -2.127019 57 83 143
68.000000 -9.000000 -1.772516 57 85 147
69.000000 -9.000000 -1.772516 58 86 148
70.000000 -9.000000 -1.772516 59 87 150
71.000000 -9.000000 -5.672052 59 88 151
72.000000 -9.000000 -5.672052 61 90 154
73.000000 -9.000000 -5.672052 63 90 156
74.000000 -9.000000 -5.672052 63 90 157
75.000000 -9.000000 0.354503 63 92 158
76.000000 -9.000000 3.190529 64 94 159
77.000000 -9.000000 5.672052 65 94 160
78.000000 -9.000000 6.381058 67 95 161
79.000000 -9.000000 7.090065 68 96 162
80.000000 -9.000000 9.217084 69 97 163
81.000000 -9.000000 9.571588 68 97 163
82.000000 -9.000000 9.926091 68 98 163
83.000000 -9.000000 10.635098 68 97 161
84.000000 -9.000000 10.635098 67 93 152
85.000000 -9.000000 10.280594 67 92 149
86.000000 -9.000000 10.280594 75 98 160
87.000000 -9.000000 10.635098 81 106 173
88.000000 -9.000000 10.989600 83 110 179
89.000000 -9.000000 11.344104 84 111 180
90.000000 -9.000000 11.344104 85 112 181
91.000000 -9.000000 11.344104 86 114 183
92.000000 -9.000000 11.344104 88 116 186
93.000000 -9.000000 11.344104 90 117 189
94.000000 -9.000000 11.344104 90 119 191
95.000000 -9.000000 12.407614 89 119 192
96.000000 -9.000000 13.471124 90 121 194
97.000000 -9.000000 13.471124 94 125 198
98.000000 -9.000000 13.471124 97 128 201
101.000000 -9.000000 63.456081 101 134 207
102.000000 -9.000000 64.519592 102 135 209
103.000000 -9.000000 63.456081 103 135 210
106.000000 -9.000000 4.608542 111 144 219
107.000000 -9.000000 4.608542 111 146 224
108.000000 -9.000000 4.608542 113 149 226
109.000000 -9.000000 8.153575 115 151 226
110.000000 -9.000000 8.153575 117 153 228
114.000000 -9.000000 -5.672052 123 159 236
116.000000 -9.000000 -5.672052 126 162 240
117.000000 -9.000000 -0.709006 127 163 241
118.000000 -9.000000 5.672052 128 164 242
119.000000 -9.000000 5.672052 131 167 244
120.000000 -9.000000 7.090065 131 167 245
121.000000 -9.000000 6.381058 132 169 246
122.000000 -9.000000 7.799071 134 171 249
123.000000 -9.000000 57.075024 134 171 248
124.000000 -9.000000 58.493034 138 175 251
125.000000 -9.000000 60.620056 140 178 253
126.000000 -9.000000 61.329060 137 175 251
127.000000 -9.000000 62.392570 136 174 251
128.000000 -9.000000 62.392570 138 176 253
134.000000 -9.000000 69.482635 135 174 251
135.000000 -9.000000 71.964157 133 172 249
136.000000 -9.000000 71.964157 132 172 247
138.000000 -9.000000 92.170845 127 165 233
139.000000 -9.000000 96.424881 122 159 226
140.000000 -9.000000 101.033424 116 151 217
141.000000 -9.000000 105.996468 112 146 208
142.000000 -9.000000 109.896004 110 142 200
143.000000 -9.000000 115.213554 107 137 194
144.000000 -9.000000 119.822098 105 135 190
145.000000 -9.000000 124.076134 103 132 184
146.000000 -9.000000 126.557655 99 127 178
147.000000 -9.000000 129.748184 93 119 169
148.000000 -9.000000 131.166199 72 88 125
149.000000 -9.000000 132.584213 36 41 56
150.000000 -9.000000 135.774750 31 32 41
151.000000 -9.000000 136.483749 29 30 38
152.000000 -9.000000 137.901764 25 28 32
153.000000 -9.000000 140.028778 26 28 31
154.000000 -9.000000 141.446793 30 30 32
155.000000 -9.000000 141.446793 39 39 37
156.000000 -9.000000 141.801300 75 76 71
157.000000 -9.000000 141.801300 93 93 89
158.000000 -9.000000 141.801300 68 68 68
63.000000 -10.000000 193.558777 185 188 187
64.000000 -10.000000 193.913269 186 189 189
65.000000 -10.000000 193.558777 80 83 90
66.000000 -10.000000 -1.772516 56 69 103
67.000000 -10.000000 -2.127019 57 83 140
68.000000 -10.000000 -1.772516 56 85 145
69.000000 -10.000000 -1.418013 58 86 148
70.000000 -10.000000 -1.418013 59 87 150
71.000000 -10.000000 -5.672052 59 87 150
72.000000 -10.000000 -5.672052 60 88 151
73.000000 -10.000000 -5.672052 62 90 155
74.000000 -10.000000 -5.672052 64 91 157
75.000000 -10.000000 -5.672052 64 92 159
76.000000 -10.000000 0.354503 64 93 159
77.000000 -10.000000 5.672052 64 93 159
78.000000 -10.000000 7.090065 65 94 160
79.000000 -10.000000 9.217084 67 95 162
80.000000 -10.000000 9.926091 69 96 163
81.000000 -10.000000 10.989600 69 97 163
82.000000 -10.000000 10.989600 70 98 165
83.000000 -10.000000 11.344104 71 99 166
84.000000 -10.000000 11.698607 73 101 168
85.000000 -10.000000 11.698607 75 102 169
86.000000 -10.000000 12.053110 78 104 172
87.000000 -10.000000 12.053110 81 107 175
88.000000 -10.000000 12.762116 83 110 178
89.000000 -10.000000 13.825626 84 111 179
90.000000 -10.000000 14.180130 85 112 181
91.000000 -10.000000 14.180130 86 113 181
92.000000 -10.000000 14.180130 88 115 183
93.000000 -10.000000 13.471124 89 117 186
94.000000 -10.000000 13.471124 90 117 188
95.000000 -10.000000 15.243640 90 118 189
96.000000 -10.000000 15.952646 92 121 192
97.000000 -10.000000 16.661652 94 123 196
98.000000 -10.000000 17.016155 97 126 199
99.000000 -10.000000 20.561188 97 128 199
100.000000 -10.000000 21.979200 98 129 201
101.000000 -10.000000 63.456081 99 131 204
102.000000 -10.000000 63.456081 101 133 206
106.000000 -10.000000 9.217084 110 142 216
107.000000 -10.000000 10.635098 109 143 220
108.000000 -10.000000 9.571588 111 146 223
109.000000 -10.000000 11.344104 113 149 225
110.000000 -10.000000 9.571588 114 151 225
114.000000 -10.000000 -5.672052 120 156 231
119.000000 -10.000000 5.672052 129 166 240
120.000000 -10.000000 7.090065 129 165 241
123.000000 -10.000000 57.075024 131 169 246
124.000000 -10.000000 58.847538 135 173 249
125.000000 -10.000000 60.620056 137 174 250
126.000000 -10.000000 61.329060 134 172 248
127.000000 -10.000000 62.392570 133 171 247
128.000000 -10.000000 63.456081 134 172 248
129.000000 -10.000000 63.456081 134 173 249
133.000000 -10.000000 66.646606 135 174 251
134.000000 -10.000000 68.064621 133 172 249
135.000000 -10.000000 68.419128 131 170 247
139.000000 -10.000000 95.715874 121 156 222
140.000000 -10.000000 99.969917 116 149 214
141.000000 -10.000000 103.514946 111 143 206
142.000000 -10.000000 109.186996 108 138 197
143.000000 -10.000000 114.859055 106 135 193
144.000000 -10.000000 119.467590 104 134 189
145.000000 -10.000000 123.367126 101 131 183
146.000000 -10.000000 126.203156 97 126 178
147.000000 -10.000000 129.748184 92 119 169
148.000000 -10.000000 131.166199 71 88 124
149.000000 -10.000000 132.584213 37 42 58
150.000000 -10.000000 136.129242 31 33 44
151.000000 -10.000000 136.838257 29 31 40
152.000000 -10.000000 138.256271 26 29 34
153.000000 -10.000000 140.383286 27 29 32
154.000000 -10.000000 141.446793 30 30 32
155.000000 -10.000000 141.801300 39 40 37
156.000000 -10.000000 141.801300 76 77 72
157.000000 -10.000000 141.801300 91 92 87
158.000000 -10.000000 141.801300 66 66 66
63.000000 -11.000000 193.913269 183 184 182
64.000000 -11.000000 194.267776 182 185 185
65.000000 -11.000000 193.913269 109 116 124
66.000000 -11.000000 -1.418013 70 87 120
67.000000 -11.000000 -2.127019 57 83 140
68.000000 -11.000000 -1.772516 56 84 146
69.000000 -11.000000 -0.709006 57 85 148
70.000000 -11.000000 -0.709006 58 86 148
71.000000 -11.000000 -1.418013 58 87 148
72.000000 -11.000000 -5.672052 60 88 151
73.000000 -11.000000 -5.672052 61 90 155
74.000000 -11.000000 -5.672052 62 92 156
75.000000 -11.000000 -5.672052 62 92 156
76.000000 -11.000000 -5.672052 63 92 157
77.000000 -11.000000 0.000000 64 93 158
78.000000 -11.000000 3.545033 65 93 159
79.000000 -11.000000 9.217084 67 94 161
80.000000 -11.000000 9.926091 69 96 163
81.000000 -11.000000 10.989600 70 97 164
82.000000 -11.000000 10.989600 71 98 165
83.000000 -11.000000 11.344104 72 99 166
84.000000 -11.000000 11.698607 74 101 168
85.000000 -11.000000 12.053110 75 102 170
86.000000 -11.000000 12.053110 77 104 173
87.000000 -11.000000 12.762116 80 107 175
88.000000 -11.000000 13.825626 82 109 177
89.000000 -11.000000 14.180130 83 110 178
90.000000 -11.000000 17.016155 84 111 180
91.000000 -11.000000 17.725163 86 113 182
92.000000 -11.000000 17.370659 87 114 183
93.000000 -11.000000 16.307150 87 116 185
94.000000 -11.000000 15.243640 88 117 187
95.000000 -11.000000 15.243640 89 118 187
96.000000 -11.000000 15.952646 92 120 191
97.000000 -11.000000 16.661652 95 123 195
98.000000 -11.000000 19.143175 96 125 197
99.000000 -11.000000 19.497679 96 127 200
106.000000 -11.000000 13.116620 107 139 212
107.000000 -11.000000 13.116620 108 141 215
108.000000 -11.000000 11.344104 110 144 218
109.000000 -11.000000 11.344104 112 147 220
124.000000 -11.000000 58.847538 132 169 247
125.000000 -11.000000 60.974560 132 169 248
126.000000 -11.000000 62.038067 131 168 246
127.000000 -11.000000 62.392570 132 169 246
128.000000 -11.000000 63.810585 131 169 246
129.000000 -11.000000 64.165085 130 168 245
130.000000 -11.000000 64.165085 130 169 246
131.000000 -11.000000 64.165085 132 171 248
132.000000 -11.000000 64.874092 132 171 249
133.000000 -11.000000 67.001114 132 171 249
134.000000 -11.000000 67.355614 131 169 248
139.000000 -11.000000 95.715874 118 152 217
140.000000 -11.000000 99.969917 114 146 210
141.000000 -11.000000 102.805939 110 141 205
142.000000 -11.000000 107.768990 108 137 197
143.000000 -11.000000 113.441040 105 135 190
144.000000 -11.000000 118.758583 102 132 185
145.000000 -11.000000 123.012627 99 128 180
146.000000 -11.000000 125.848648 95 123 174
147.000000 -11.000000 129.748184 90 117 165
148.000000 -11.000000 131.166199 69 87 122
149.000000 -11.000000 132.584213 38 44 58
150.000000 -11.000000 136.129242 33 35 45
151.000000 -11.000000 137.192749 31 33 41
152.000000 -11.000000 138.256271 29 30 35
153.000000 -11.000000 140.737793 29 29 31
154.000000 -11.000000 141.446793 31 31 31
155.000000 -11.000000 141.801300 40 40 38
156.000000 -11.000000 141.801300 76 77 72
157.000000 -11.000000 142.155807 91 92 87
158.000000 -11.000000 141.801300 64 64 65
63.000000 -12.000000 194.267776 181 182 181
64.000000 -12.000000 194.622284 161 164 164
65.000000 -12.000000 194.267776 95 102 110
66.000000 -12.000000 114.150047 73 90 125
67.000000 -12.000000 -5.672052 57 83 141
68.000000 -12.000000 -2.127019 57 84 146
69.000000 -12.000000 -0.709006 57 85 148
70.000000 -12.000000 -0.709006 58 86 149
71.000000 -12.000000 -0.709006 59 87 149
72.000000 -12.000000 -1.772516 60 88 151
73.000000 -12.000000 -5.672052 62 90 154
74.000000 -12.000000 -5.672052 63 91 156
75.000000 -12.000000 -5.672052 62 90 155
76.000000 -12.000000 -5.672052 63 92 155
77.000000 -12.000000 -2.127019 64 93 156
78.000000 -12.000000 0.000000 64 94 157
79.000000 -12.000000 2.836026 66 94 160
80.000000 -12.000000 9.217084 68 95 162
81.000000 -12.000000 9.571588 70 97 164
82.000000 -12.000000 9.926091 71 98 165
83.000000 -12.000000 10.989600 72 99 166
84.000000 -12.000000 11.344104 74 101 169
85.000000 -12.000000 11.698607 75 102 170
86.000000 -12.000000 12.053110 76 104 172
87.000000 -12.000000 12.762116 78 105 174
88.000000 -12.000000 14.180130 80 107 176
89.000000 -12.000000 16.307150 82 109 178
90.000000 -12.000000 17.016155 83 110 180
91.000000 -12.000000 19.143175 85 112 183
92.000000 -12.000000 17.370659 86 113 185
93.000000 -12.000000 16.307150 87 115 184
94.000000 -12.000000 14.534633 88 116 185
95.000000 -12.000000 14.534633 89 117 186
96.000000 -12.000000 14.889136 91 119 190
97.000000 -12.000000 15.243640 94 121 192
98.000000 -12.000000 15.952646 96 124 195
99.000000 -12.000000 12.053110 95 125 198
106.000000 -12.000000 13.825626 106 138 208
107.000000 -12.000000 13.825626 107 141 211
118.000000 -12.000000 58.138531 123 157 230
125.000000 -12.000000 60.974560 128 164 242
126.000000 -12.000000 62.038067 128 165 241
127.000000 -12.000000 63.456081 129 166 239
128.000000 -12.000000 64.165085 128 166 239
129.000000 -12.000000 64.519592 128 165 239
130.000000 -12.000000 64.519592 128 166 241
131.000000 -12.000000 64.519592 128 166 242
132.000000 -12.000000 65.937607 128 166 241
133.000000 -12.000000 67.355614 130 167 243
134.000000 -12.000000 67.355614 129 167 244
138.000000 -12.000000 130.457199 121 155 222
139.000000 -12.000000 97.842896 117 151 216
140.000000 -12.000000 97.842896 114 146 209
141.000000 -12.000000 102.805939 111 141 204
142.000000 -12.000000 107.768990 107 137 195
143.000000 -12.000000 113.086533 103 133 186
144.000000 -12.000000 118.049583 100 129 179
145.000000 -12.000000 121.949120 97 124 175
146.000000 -12.000000 125.139648 93 120 170
147.000000 -12.000000 128.684677 88 114 162
148.000000 -12.000000 130.457199 68 86 120
149.000000 -12.000000 132.229706 39 45 58
150.000000 -12.000000 136.129242 35 38 44
151.000000 -12.000000 137.192749 33 35 40
152.000000 -12.000000 138.256271 32 31 36
153.000000 -12.000000 141.092285 30 30 32
154.000000 -12.000000 141.801300 32 32 32
155.000000 -12.000000 141.801300 42 42 41
156.000000 -12.000000 142.155807 78 78 75
157.000000 -12.000000 142.155807 92 92 89
158.000000 -12.000000 142.155807 64 64 64
63.000000 -13.000000 194.622284 177 177 177
64.000000 -13.000000 194.976791 156 159 161
65.000000 -13.000000 194.622284 78 86 94
66.000000 -13.000000 114.150047 66 82 116
67.000000 -13.000000 -5.672052 59 83 138
68.000000 -13.000000 -5.672052 58 84 143
69.000000 -13.000000 -0.709006 59 85 147
70.000000 -13.000000 -0.709006 58 86 149
71.000000 -13.000000 -0.709006 59 87 150
72.000000 -13.000000 -1.063510 60 88 151
73.000000 -13.000000 -5.672052 61 89 153
74.000000 -13.000000 -5.672052 62 90 154
75.000000 -13.000000 -5.672052 63 91 154
76.000000 -13.000000 -2.481523 64 92 155
77.000000 -13.000000 -1.418013 65 93 156
78.000000 -13.000000 0.000000 66 94 158
79.000000 -13.000000 1.063510 67 94 160
80.000000 -13.000000 2.836026 68 95 162
81.000000 -13.000000 6.026555 69 96 163
82.000000 -13.000000 7.799071 71 98 165
83.000000 -13.000000 9.217084 73 99 166
84.000000 -13.000000 9.217084 75 102 168
85.000000 -13.000000 9.926091 76 103 169
86.000000 -13.000000 11.344104 76 103 170
87.000000 -13.000000 12.053110 77 104 172
88.000000 -13.000000 13.116620 80 107 175
89.000000 -13.000000 15.952646 82 109 177
90.000000 -13.000000 15.952646 83 110 179
91.000000 -13.000000 19.143175 84 111 180
93.000000 -13.000000 10.280594 87 114 182
94.000000 -13.000000 11.344104 88 115 183
95.000000 -13.000000 12.053110 89 116 185
96.000000 -13.000000 12.762116 91 118 188
97.000000 -13.000000 12.762116 93 120 190
98.000000 -13.000000 11.698607 95 123 192
99.000000 -13.000000 11.698607 95 123 193
100.000000 -13.000000 9.217084 96 124 194
101.000000 -13.000000 10.635098 98 126 195
102.000000 -13.000000 9.217084 99 127 197
105.000000 -13.000000 9.926091 104 133 203
106.000000 -13.000000 11.344104 107 136 206
117.000000 -13.000000 58.138531 117 152 223
118.000000 -13.000000 61.683563 119 154 225
119.000000 -13.000000 61.683563 120 157 228
125.000000 -13.000000 62.038067 123 159 232
126.000000 -13.000000 62.747074 124 161 233
127.000000 -13.000000 63.456081 126 163 234
128.000000 -13.000000 63.456081 125 162 233
129.000000 -13.000000 64.165085 125 162 233
130.000000 -13.000000 64.519592 125 161 234
131.000000 -13.000000 64.874092 123 160 234
132.000000 -13.000000 66.292107 125 161 234
133.000000 -13.000000 67.710121 126 163 235
134.000000 -13.000000 67.710121 126 162 236
138.000000 -13.000000 130.457199 120 154 219
142.000000 -13.000000 107.768990 108 138 193
143.000000 -13.000000 113.086533 103 133 186
144.000000 -13.000000 118.049583 99 127 178
145.000000 -13.000000 121.240112 95 123 172
146.000000 -13.000000 124.785141 91 118 165
147.000000 -13.000000 128.684677 86 111 158
148.000000 -13.000000 130.457199 67 83 117
149.000000 -13.000000 131.520706 41 46 59
150.000000 -13.000000 135.774750 39 42 47
151.000000 -13.000000 136.838257 36 39 43
152.000000 -13.000000 138.256271 32 33 37
153.000000 -13.000000 141.092285 30 30 33
154.000000 -13.000000 141.801300 33 33 33
155.000000 -13.000000 141.801300 45 45 44
156.000000 -13.000000 142.155807 80 79 77
157.000000 -13.000000 142.155807 91 91 87
158.000000 -13.000000 142.155807 61 61 61
64.000000 -14.000000 194.976791 156 159 162
65.000000 -14.000000 114.504547 83 90 101
66.000000 -14.000000 -5.672052 68 83 117
67.000000 -14.000000 -5.672052 60 83 137
68.000000 -14.000000 -5.672052 58 83 141
69.000000 -14.000000 -5.672052 58 85 146
70.000000 -14.000000 -0.709006 57 85 148
71.000000 -14.000000 -1.063510 59 87 149
72.000000 -14.000000 -5.672052 59 87 150
73.000000 -14.000000 -5.672052 60 88 151
74.000000 -14.000000 -5.672052 62 90 152
75.000000 -14.000000 -5.672052 63 91 154
76.000000 -14.000000 -5.672052 63 91 154
77.000000 -14.000000 -2.127019 64 92 157
78.000000 -14.000000 -2.127019 66 93 159
79.000000 -14.000000 0.000000 67 94 160
80.000000 -14.000000 1.063510 67 94 161
81.000000 -14.000000 2.836026 69 96 163
82.000000 -14.000000 6.026555 71 98 164
83.000000 -14.000000 7.444568 73 99 164
84.000000 -14.000000 7.799071 75 101 165
85.000000 -14.000000 8.862581 76 102 166
86.000000 -14.000000 9.926091 77 104 167
87.000000 -14.000000 11.344104 78 105 170
88.000000 -14.000000 12.407614 80 106 174
89.000000 -14.000000 12.762116 82 108 176
95.000000 -14.000000 11.344104 89 116 184
96.000000 -14.000000 11.344104 90 117 186
97.000000 -14.000000 11.344104 92 119 188
98.000000 -14.000000 11.698607 94 121 190
99.000000 -14.000000 11.698607 95 122 191
100.000000 -14.000000 11.698607 96 123 193
101.000000 -14.000000 10.635098 98 125 194
105.000000 -14.000000 9.217084 103 133 202
117.000000 -14.000000 59.202042 116 148 219
118.000000 -14.000000 61.683563 117 150 219
119.000000 -14.000000 62.392570 118 153 222
120.000000 -14.000000 61.683563 118 153 222
125.000000 -14.000000 85.789787 120 155 226
126.000000 -14.000000 90.752831 121 157 228
127.000000 -14.000000 64.165085 122 158 229
128.000000 -14.000000 64.165085 124 160 231
129.000000 -14.000000 64.874092 125 160 232
130.000000 -14.000000 64.874092 123 159 231
131.000000 -14.000000 65.937607 121 157 230
132.000000 -14.000000 66.292107 123 159 232
133.000000 -14.000000 67.710121 124 159 232
134.000000 -14.000000 67.710121 122 157 230
135.000000 -14.000000 68.064621 120 156 228
143.000000 -14.000000 107.768990 102 131 185
144.000000 -14.000000 113.086533 98 125 178
145.000000 -14.000000 120.885605 95 121 172
146.000000 -14.000000 124.785141 91 117 165
147.000000 -14.000000 127.621170 88 113 160
148.000000 -14.000000 129.748184 70 86 120
149.000000 -14.000000 130.811691 43 47 61
150.000000 -14.000000 135.420242 42 43 50
151.000000 -14.000000 136.838257 37 39 45
152.000000 -14.000000 138.256271 32 35 38
153.000000 -14.000000 141.092285 30 32 33
154.000000 -14.000000 141.801300 34 34 34
155.000000 -14.000000 142.155807 46 45 44
156.000000 -14.000000 142.510300 81 79 76
157.000000 -14.000000 142.510300 90 89 85
158.000000 -14.000000 142.510300 60 60 60
64.000000 -15.000000 -5.672052 147 149 153
65.000000 -15.000000 -5.672052 81 87 98
66.000000 -15.000000 -5.672052 70 84 118
67.000000 -15.000000 -5.672052 60 83 136
68.000000 -15.000000 -5.672052 58 84 139
69.000000 -15.000000 -5.672052 58 85 144
70.000000 -15.000000 -5.672052 59 86 148
71.000000 -15.000000 -5.672052 60 87 150
72.000000 -15.000000 -5.672052 60 87 150
73.000000 -15.000000 -5.672052 61 89 149
74.000000 -15.000000 -5.672052 62 90 149
75.000000 -15.000000 -5.672052 63 91 151
76.000000 -15.000000 -5.672052 63 91 153
77.000000 -15.000000 -5.672052 65 92 155
78.000000 -15.000000 -5.672052 66 93 157
79.000000 -15.000000 -2.127019 67 94 158
80.000000 -15.000000 -1.063510 68 94 160
81.000000 -15.000000 0.709006 69 95 162
82.000000 -15.000000 3.899536 71 97 164
83.000000 -15.000000 6.381058 72 99 163
84.000000 -15.000000 7.090065 73 100 163
85.000000 -15.000000 7.799071 76 101 164
86.000000 -15.000000 8.862581 78 103 165
87.000000 -15.000000 10.280594 80 104 168
88.000000 -15.000000 12.053110 82 106 171
89.000000 -15.000000 12.407614 82 107 171
94.000000 -15.000000 -5.672052 88 115 180
95.000000 -15.000000 -5.672052 89 115 182
97.000000 -15.000000 10.989600 91 117 184
98.000000 -15.000000 11.698607 92 119 186
99.000000 -15.000000 12.407614 94 121 188
100.000000 -15.000000 12.053110 97 123 191
101.000000 -15.000000 10.635098 98 125 192
104.000000 -15.000000 6.381058 100 127 193
105.000000 -15.000000 9.217084 102 129 195
106.000000 -15.000000 9.217084 105 131 197
107.000000 -15.000000 12.407614 107 133 201
108.000000 -15.000000 21.624699 108 136 204
109.000000 -15.000000 22.688208 107 138 207
116.000000 -15.000000 58.138531 114 143 211
117.000000 -15.000000 60.265553 114 143 211
118.000000 -15.000000 61.683563 114 143 210
119.000000 -15.000000 62.392570 115 144 211
124.000000 -15.000000 85.789787 116 148 212
125.000000 -15.000000 91.816338 116 147 211
126.000000 -15.000000 93.943359 116 147 214
127.000000 -15.000000 96.779388 115 146 213
128.000000 -15.000000 99.615410 117 148 214
129.000000 -15.000000 101.033424 116 148 212
130.000000 -15.000000 65.937607 113 145 208
131.000000 -15.000000 65.937607 112 144 206
132.000000 -15.000000 65.937607 112 144 205
133.000000 -15.000000 67.001114 110 143 204
134.000000 -15.000000 67.710121 109 141 200
135.000000 -15.000000 68.064621 108 139 197
136.000000 -15.000000 70.191643 106 137 193
146.000000 -15.000000 123.012627 81 101 142
147.000000 -15.000000 125.494148 82 102 141
148.000000 -15.000000 129.393677 66 79 107
149.000000 -15.000000 130.457199 41 46 57
150.000000 -15.000000 135.420242 40 42 49
151.000000 -15.000000 136.483749 37 38 44
152.000000 -15.000000 138.256271 33 35 39
153.000000 -15.000000 141.092285 31 32 34
154.000000 -15.000000 141.801300 34 34 34
155.000000 -15.000000 142.510300 47 46 44
156.000000 -15.000000 142.510300 80 79 75
157.000000 -15.000000 142.510300 90 88 84
158.000000 -15.000000 142.510300 60 60 59
64.000000 -16.000000 -5.672052 144 147 151
65.000000 -16.000000 -5.672052 76 83 92
66.000000 -16.000000 -5.672052 69 82 113
67.000000 -16.000000 -5.672052 61 82 133
68.000000 -16.000000 -5.672052 60 84 135
69.000000 -16.000000 -5.672052 62 85 138
70.000000 -16.000000 -5.672052 63 87 141
71.000000 -16.000000 -5.672052 64 88 143
72.000000 -16.000000 -5.672052 64 88 143
73.000000 -16.000000 -5.672052 65 89 143
74.000000 -16.000000 -5.672052 66 89 142
75.000000 -16.000000 -5.672052 66 89 143
76.000000 -16.000000 -5.672052 66 90 144
77.000000 -16.000000 -5.672052 68 91 144
78.000000 -16.000000 -5.672052 69 92 145
79.000000 -16.000000 -5.672052 70 93 146
80.000000 -16.000000 -5.672052 71 93 146
81.000000 -16.000000 -1.063510 72 94 148
82.000000 -16.000000 0.354503 73 94 150
83.000000 -16.000000 3.899536 74 95 150
84.000000 -16.000000 6.026555 75 96 149
87.000000 -16.000000 8.862581 81 101 151
88.000000 -16.000000 11.698607 83 102 152
89.000000 -16.000000 12.053110 83 103 151
93.000000 -16.000000 -5.672052 87 108 157
94.000000 -16.000000 -5.672052 88 109 157
98.000000 -16.000000 14.889136 92 111 158
99.000000 -16.000000 16.661652 94 114 161
100.000000 -16.000000 16.661652 95 115 162
104.000000 -16.000000 -5.672052 97 116 158
105.000000 -16.000000 6.381058 99 116 157
106.000000 -16.000000 9.217084 100 117 159
107.000000 -16.000000 17.016155 102 119 161
108.000000 -16.000000 21.624699 103 121 163
109.000000 -16.000000 22.688208 104 123 162
110.000000 -16.000000 22.688208 103 123 162
116.000000 -16.000000 59.911049 107 125 158
117.000000 -16.000000 61.683563 109 126 159
118.000000 -16.000000 62.392570 110 126 159
119.000000 -16.000000 62.392570 112 126 157
124.000000 -16.000000 85.789787 109 126 155
125.000000 -16.000000 92.525345 110 125 154
126.000000 -16.000000 96.779388 111 126 154
127.000000 -16.000000 99.615410 111 126 154
128.000000 -16.000000 101.387924 110 127 152
129.000000 -16.000000 102.096931 108 127 149
130.000000 -16.000000 102.096931 108 126 147
131.000000 -16.000000 64.874092 110 127 146
132.000000 -16.000000 64.874092 110 127 144
133.000000 -16.000000 67.001114 109 126 142
134.000000 -16.000000 68.064621 112 127 143
135.000000 -16.000000 70.191643 112 126 140
136.000000 -16.000000 73.736671 110 124 137
146.000000 -16.000000 125.139648 99 106 114
147.000000 -16.000000 129.039185 98 104 112
148.000000 -16.000000 129.748184 71 75 80
149.000000 -16.000000 130.457199 42 44 49
150.000000 -16.000000 135.420242 39 43 47
151.000000 -16.000000 136.483749 37 40 44
152.000000 -16.000000 138.256271 34 36 40
153.000000 -16.000000 141.092285 32 33 36
154.000000 -16.000000 141.801300 34 34 34
155.000000 -16.000000 142.510300 48 47 44
156.000000 -16.000000 143.219315 80 78 74
157.000000 -16.000000 143.219315 89 87 83
158.000000 -16.000000 143.219315 59 59 59
63.000000 -17.000000 -5.672052 163 163 164
64.000000 -17.000000 -5.672052 146 149 154
65.000000 -17.000000 -5.672052 89 94 100
66.000000 -17.000000 -5.672052 100 106 119
67.000000 -17.000000 -5.672052 96 104 124
68.000000 -17.000000 -5.672052 95 103 121
69.000000 -17.000000 -5.672052 96 104 121
70.000000 -17.000000 -5.672052 98 105 121
71.000000 -17.000000 -5.672052 100 108 123
72.000000 -17.000000 -5.672052 101 108 124
73.000000 -17.000000 -5.672052 103 109 123
74.000000 -17.000000 -5.672052 105 111 123
75.000000 -17.000000 -5.672052 106 112 123
76.000000 -17.000000 -5.672052 107 113 124
77.000000 -17.000000 -5.672052 109 115 126
78.000000 -17.000000 -5.672052 112 118 129
79.000000 -17.000000 -5.672052 115 120 130
80.000000 -17.000000 -5.672052 118 121 128
81.000000 -17.000000 -1.063510 119 123 127
82.000000 -17.000000 -1.063510 121 124 129
83.000000 -17.000000 0.354503 122 125 131
92.000000 -17.000000 -5.672052 144 144 144
93.000000 -17.000000 -5.672052 147 146 144
94.000000 -17.000000 -5.672052 149 149 142
95.000000 -17.000000 -5.672052 152 151 145
96.000000 -17.000000 -5.672052 153 153 147
97.000000 -17.000000 14.889136 155 154 145
98.000000 -17.000000 16.661652 158 155 149
99.000000 -17.000000 17.016155 159 157 153
100.000000 -17.000000 17.370659 160 158 154
104.000000 -17.000000 -5.672052 167 164 159
106.000000 -17.000000 6.381058 172 169 162
107.000000 -17.000000 17.016155 174 171 163
108.000000 -17.000000 19.143175 176 174 164
109.000000 -17.000000 21.979200 178 175 165
110.000000 -17.000000 23.042711 178 176 165
111.000000 -17.000000 23.042711 178 177 165
116.000000 -17.000000 59.911049 187 186 176
117.000000 -17.000000 61.683563 189 188 177
118.000000 -17.000000 63.456081 192 189 177
119.000000 -17.000000 67.355614 194 190 177
120.000000 -17.000000 74.800186 194 190 177
125.000000 -17.000000 93.943359 191 193 184
126.000000 -17.000000 97.842896 194 194 184
127.000000 -17.000000 101.033424 196 195 185
128.000000 -17.000000 102.096931 196 198 185
129.000000 -17.000000 102.096931 195 199 186
133.000000 -17.000000 64.874092 198 201 188
134.000000 -17.000000 68.064621 198 201 187
135.000000 -17.000000 70.191643 197 199 187
136.000000 -17.000000 79.054222 195 198 187
137.000000 -17.000000 79.054222 193 195 186
146.000000 -17.000000 129.039185 164 164 149
147.000000 -17.000000 129.393677 157 156 143
148.000000 -17.000000 130.457199 103 103 98
149.000000 -17.000000 130.457199 47 49 51
150.000000 -17.000000 135.420242 41 44 49
151.000000 -17.000000 136.483749 38 40 46
152.000000 -17.000000 138.256271 35 36 42
153.000000 -17.000000 138.256271 32 33 38
154.000000 -17.000000 141.801300 34 35 35
155.000000 -17.000000 142.864807 49 50 46
156.000000 -17.000000 143.219315 80 80 77
157.000000 -17.000000 143.573807 87 87 84
158.000000 -17.000000 143.573807 58 58 59
63.000000 -18.000000 -5.672052 148 148 149
64.000000 -18.000000 -5.672052 135 139 144
65.000000 -18.000000 -5.672052 84 89 91
66.000000 -18.000000 -5.672052 146 140 129
67.000000 -18.000000 -5.672052 177 163 137
68.000000 -18.000000 -5.672052 180 164 135
69.000000 -18.000000 -5.672052 182 165 137
70.000000 -18.000000 -5.672052 183 166 136
71.000000 -18.000000 -5.672052 185 168 137
72.000000 -18.000000 -5.672052 187 170 140
73.000000 -18.000000 -5.672052 188 172 141
74.000000 -18.000000 -5.672052 190 174 142
75.000000 -18.000000 -5.672052 192 175 142
76.000000 -18.000000 -5.672052 194 177 142
77.000000 -18.000000 -5.672052 196 178 146
78.000000 -18.000000 -2.127019 198 180 149
79.000000 -18.000000 -1.418013 200 182 150
80.000000 -18.000000 -1.418013 203 185 149
81.000000 -18.000000 -1.418013 204 186 149
82.000000 -18.000000 -2.481523 206 188 151
83.000000 -18.000000 -0.354503 206 187 153
91.000000 -18.000000 -5.672052 220 203 165
92.000000 -18.000000 -5.672052 220 204 166
93.000000 -18.000000 -5.672052 222 205 167
94.000000 -18.000000 -5.672052 224 208 169
95.000000 -18.000000 -2.481523 225 209 170
96.000000 -18.000000 10.989600 226 210 171
97.000000 -18.000000 14.889136 227 211 173
98.000000 -18.000000 17.016155 227 211 177
99.000000 -18.000000 18.079666 227 213 180
100.000000 -18.000000 18.079666 227 213 180
103.000000 -18.000000 -5.672052 230 216 186
104.000000 -18.000000 -5.672052 231 216 187
107.000000 -18.000000 15.598143 233 220 191
108.000000 -18.000000 17.725163 233 222 192
109.000000 -18.000000 21.624699 233 223 194
110.000000 -18.000000 23.042711 232 223 193
111.000000 -18.000000 23.042711 231 224 194
116.000000 -18.000000 59.556545 231 226 201
117.000000 -18.000000 62.392570 231 226 200
118.000000 -18.000000 67.355614 232 226 200
119.000000 -18.000000 74.800186 232 226 199
120.000000 -18.000000 76.218201 231 226 199
121.000000 -18.000000 76.218201 229 226 198
126.000000 -18.000000 97.488396 226 224 202
127.000000 -18.000000 101.387924 226 224 203
128.000000 -18.000000 102.451439 226 226 204
129.000000 -18.000000 103.160446 225 226 206
134.000000 -18.000000 73.736671 222 223 201
135.000000 -18.000000 79.054222 218 220 200
136.000000 -18.000000 80.117737 216 217 201
137.000000 -18.000000 81.181244 213 214 199
144.000000 -18.000000 126.557655 184 182 164
145.000000 -18.000000 128.684677 180 178 157
146.000000 -18.000000 129.039185 175 173 152
147.000000 -18.000000 130.102692 165 163 143
148.000000 -18.000000 130.457199 108 107 98
149.000000 -18.000000 131.520706 49 51 51
150.000000 -18.000000 135.420242 41 45 48
151.000000 -18.000000 136.483749 38 41 46
152.000000 -18.000000 138.256271 35 36 42
153.000000 -18.000000 138.610764 32 32 38
154.000000 -18.000000 141.801300 35 35 35
155.000000 -18.000000 143.219315 50 50 47
156.000000 -18.000000 143.573807 82 80 77
157.000000 -18.000000 143.928314 88 86 82
158.000000 -18.000000 143.928314 58 57 55
63.000000 -19.000000 -5.672052 131 131 133
64.000000 -19.000000 -5.672052 135 139 146
65.000000 -19.000000 -5.672052 87 90 96
66.000000 -19.000000 -5.672052 158 146 128
67.000000 -19.000000 -5.672052 199 179 141
68.000000 -19.000000 -5.672052 203 181 142
69.000000 -19.000000 -5.672052 204 182 143
70.000000 -19.000000 -5.672052 204 183 143
71.000000 -19.000000 -5.672052 205 184 144
72.000000 -19.000000 -5.672052 206 186 145
73.000000 -19.000000 -5.672052 207 188 146
74.000000 -19.000000 -5.672052 208 189 148
75.000000 -19.000000 -5.672052 210 190 148
76.000000 -19.000000 -5.672052 212 190 148
77.000000 -19.000000 -2.127019 213 191 149
78.000000 -19.000000 -1.063510 214 192 151
79.000000 -19.000000 -1.063510 215 193 151
80.000000 -19.000000 -1.063510 218 195 152
81.000000 -19.000000 -1.418013 219 196 153
82.000000 -19.000000 -1.418013 219 196 154
83.000000 -19.000000 -1.418013 218 196 154
84.000000 -19.000000 -1.418013 219 197 157
85.000000 -19.000000 0.000000 222 200 159
86.000000 -19.000000 -2.127019 223 201 161
90.000000 -19.000000 -5.672052 228 208 165
91.000000 -19.000000 -5.672052 229 209 166
92.000000 -19.000000 -5.672052 229 210 166
93.000000 -19.000000 -5.672052 229 212 169
94.000000 -19.000000 -5.672052 231 213 170
95.000000 -19.000000 0.000000 232 214 170
96.000000 -19.000000 12.407614 232 215 171
97.000000 -19.000000 15.952646 230 215 174
98.000000 -19.000000 18.434168 230 216 177
99.000000 -19.000000 18.434168 231 217 178
103.000000 -19.000000 -5.672052 234 220 183
104.000000 -19.000000 -5.672052 234 220 184
107.000000 -19.000000 15.598143 233 222 190
108.000000 -19.000000 17.370659 234 223 192
109.000000 -19.000000 19.143175 233 224 192
110.000000 -19.000000 21.979200 233 224 192
117.000000 -19.000000 62.392570 232 227 198
118.000000 -19.000000 68.064621 231 226 197
119.000000 -19.000000 75.154686 230 225 196
120.000000 -19.000000 78.345215 231 226 196
121.000000 -19.000000 78.699722 230 226 197
127.000000 -19.000000 102.451439 226 223 198
128.000000 -19.000000 124.430641 225 223 198
129.000000 -19.000000 125.494148 224 223 199
130.000000 -19.000000 126.557655 223 222 201
134.000000 -19.000000 79.408730 221 222 200
135.000000 -19.000000 80.117737 218 219 198
136.000000 -19.000000 81.181244 215 216 199
137.000000 -19.000000 83.308266 213 213 197
138.000000 -19.000000 83.308266 210 209 193
143.000000 -19.000000 124.785141 189 188 167
144.000000 -19.000000 128.330170 184 183 160
145.000000 -19.000000 128.684677 180 178 154
146.000000 -19.000000 129.039185 175 173 149
147.000000 -19.000000 130.102692 164 162 140
148.000000 -19.000000 131.166199 107 104 95
149.000000 -19.000000 132.229706 50 50 50
150.000000 -19.000000 135.420242 43 44 47
151.000000 -19.000000 136.483749 40 41 45
152.000000 -19.000000 136.483749 36 36 41
153.000000 -19.000000 112.023026 32 32 36
154.000000 -19.000000 141.801300 34 33 34
155.000000 -19.000000 143.219315 50 48 47
156.000000 -19.000000 143.573807 83 80 77
157.000000 -19.000000 144.282822 89 86 81
158.000000 -19.000000 144.282822 57 56 52
64.000000 -20.000000 -5.672052 138 141 156
65.000000 -20.000000 -5.672052 99 104 117
66.000000 -20.000000 -5.672052 160 148 133
67.000000 -20.000000 -5.672052 199 179 141
68.000000 -20.000000 -5.672052 203 182 141
69.000000 -20.000000 -5.672052 203 182 142
70.000000 -20.000000 -5.672052 203 184 144
71.000000 -20.000000 -5.672052 205 186 146
72.000000 -20.000000 -5.672052 207 187 145
73.000000 -20.000000 -5.672052 208 188 145
74.000000 -20.000000 -5.672052 210 188 147
75.000000 -20.000000 -5.672052 212 189 147
76.000000 -20.000000 -5.672052 213 190 146
77.000000 -20.000000 -5.672052 213 191 146
78.000000 -20.000000 -1.063510 215 192 149
79.000000 -20.000000 -0.354503 215 192 150
80.000000 -20.000000 -0.354503 217 194 153
81.000000 -20.000000 -1.418013 218 196 154
82.000000 -20.000000 -1.418013 218 196 155
83.000000 -20.000000 -0.709006 219 197 155
84.000000 -20.000000 -0.709006 220 198 156
85.000000 -20.000000 -0.709006 222 200 157
86.000000 -20.000000 -2.127019 224 201 160
90.000000 -20.000000 -5.672052 229 207 165
91.000000 -20.000000 -5.672052 230 208 166
92.000000 -20.000000 -5.672052 230 209 166
93.000000 -20.000000 -5.672052 229 211 168
94.000000 -20.000000 -5.672052 230 213 169
95.000000 -20.000000 0.000000 231 213 170
96.000000 -20.000000 15.598143 231 214 171
97.000000 -20.000000 17.016155 229 214 173
98.000000 -20.000000 19.143175 230 215 175
99.000000 -20.000000 19.143175 232 216 174
102.000000 -20.000000 -5.672052 234 218 178
103.000000 -20.000000 -5.672052 233 219 183
104.000000 -20.000000 -5.672052 233 219 184
107.000000 -20.000000 15.243640 235 221 187
108.000000 -20.000000 16.307150 234 222 188
109.000000 -20.000000 17.016155 232 222 190
117.000000 -20.000000 63.101578 231 225 195
118.000000 -20.000000 68.064621 230 223 194
119.000000 -20.000000 75.863693 229 223 193
120.000000 -20.000000 78.345215 231 224 195
121.000000 -20.000000 79.763229 229 224 195
122.000000 -20.000000 79.763229 229 224 195
128.000000 -20.000000 125.494148 224 221 193
129.000000 -20.000000 127.266663 222 220 192
130.000000 -20.000000 128.330170 221 220 195
131.000000 -20.000000 126.557655 222 220 201
133.000000 -20.000000 79.408730 221 220 199
134.000000 -20.000000 80.826736 219 219 198
135.000000 -20.000000 81.181244 216 217 197
136.000000 -20.000000 81.890251 215 214 195
137.000000 -20.000000 85.080780 212 211 192
138.000000 -20.000000 85.080780 208 207 189
142.000000 -20.000000 122.303619 193 191 170
143.000000 -20.000000 125.848648 188 186 165
144.000000 -20.000000 128.330170 184 182 157
145.000000 -20.000000 128.684677 180 177 152
146.000000 -20.000000 129.039185 175 172 147
147.000000 -20.000000 130.102692 164 160 138
148.000000 -20.000000 131.166199 106 101 93
149.000000 -20.000000 132.229706 50 49 52
150.000000 -20.000000 136.129242 44 43 48
151.000000 -20.000000 136.129242 42 41 45
152.000000 -20.000000 136.483749 37 36 38
154.000000 -20.000000 112.377525 33 31 30
155.000000 -20.000000 143.219315 50 47 43
156.000000 -20.000000 143.573807 83 80 75
157.000000 -20.000000 144.637329 87 85 78
158.000000 -20.000000 144.637329 56 56 51
65.000000 -21.000000 -5.672052 111 115 131
66.000000 -21.000000 -5.672052 162 152 138
67.000000 -21.000000 -5.672052 199 179 141
68.000000 -21.000000 -5.672052 202 180 139
69.000000 -21.000000 -5.672052 202 181 140
70.000000 -21.000000 -5.672052 204 183 142
71.000000 -21.000000 -5.672052 207 185 145
72.000000 -21.000000 -5.672052 208 186 145
73.000000 -21.000000 -5.672052 209 187 146
74.000000 -21.000000 -5.672052 210 188 147
75.000000 -21.000000 -5.672052 212 189 148
76.000000 -21.000000 -5.672052 213 190 146
77.000000 -21.000000 -2.127019 213 191 146
78.000000 -21.000000 -0.354503 214 191 148
79.000000 -21.000000 -0.354503 215 192 149
80.000000 -21.000000 0.709006 217 194 151
81.000000 -21.000000 0.709006 217 195 151
82.000000 -21.000000 0.354503 218 196 152
83.000000 -21.000000 0.000000 219 196 153
84.000000 -21.000000 -0.709006 221 198 154
85.000000 -21.000000 -0.354503 222 199 155
86.000000 -21.000000 -0.709006 223 200 156
87.000000 -21.000000 -5.672052 225 202 160
89.000000 -21.000000 -5.672052 228 205 162
90.000000 -21.000000 -5.672052 228 205 162
91.000000 -21.000000 -5.672052 229 206 163
92.000000 -21.000000 -5.672052 230 208 165
93.000000 -21.000000 0.000000 229 211 168
94.000000 -21.000000 0.000000 229 212 169
95.000000 -21.000000 15.243640 230 212 169
96.000000 -21.000000 15.952646 230 213 170
97.000000 -21.000000 17.016155 230 214 171
98.000000 -21.000000 19.143175 231 215 172
99.000000 -21.000000 19.143175 232 216 173
100.000000 -21.000000 19.143175 233 217 174
102.000000 -21.000000 -5.672052 232 217 176
103.000000 -21.000000 -5.672052 232 218 180
107.000000 -21.000000 14.889136 234 220 185
108.000000 -21.000000 15.243640 234 221 186
118.000000 -21.000000 68.064621 229 221 190
119.000000 -21.000000 75.863693 229 222 190
120.000000 -21.000000 77.281708 229 223 191
121.000000 -21.000000 79.054222 229 223 192
122.000000 -21.000000 79.763229 229 223 193
123.000000 -21.000000 79.763229 230 224 195
128.000000 -21.000000 125.848648 224 220 192
129.000000 -21.000000 128.330170 222 219 190
130.000000 -21.000000 128.684677 221 219 192
131.000000 -21.000000 128.330170 222 219 197
133.000000 -21.000000 81.181244 220 218 195
134.000000 -21.000000 81.890251 219 218 194
135.000000 -21.000000 82.244751 216 215 192
136.000000 -21.000000 83.308266 214 212 190
137.000000 -21.000000 85.080780 212 209 189
138.000000 -21.000000 85.080780 208 205 185
141.000000 -21.000000 115.922562 196 194 170
142.000000 -21.000000 120.885605 192 190 167
143.000000 -21.000000 123.367126 188 185 165
144.000000 -21.000000 126.912163 185 180 160
145.000000 -21.000000 128.684677 180 175 153
146.000000 -21.000000 129.039185 175 170 147
147.000000 -21.000000 129.748184 165 159 137
148.000000 -21.000000 130.811691 104 99 91
149.000000 -21.000000 131.875214 49 49 51
150.000000 -21.000000 136.129242 42 44 47
151.000000 -21.000000 136.129242 39 40 42
154.000000 -21.000000 112.377525 34 32 32
155.000000 -21.000000 143.219315 50 48 43
156.000000 -21.000000 143.928314 82 79 74
157.000000 -21.000000 144.991821 86 82 76
158.000000 -21.000000 144.991821 56 54 51
66.000000 -22.000000 -5.672052 166 156 139
67.000000 -22.000000 -5.672052 199 178 140
68.000000 -22.000000 -5.672052 202 180 139
69.000000 -22.000000 -5.672052 202 180 139
70.000000 -22.000000 -5.672052 204 182 141
71.000000 -22.000000 -5.672052 206 184 143
72.000000 -22.000000 -5.672052 207 185 144
73.000000 -22.000000 -5.672052 208 186 145
75.000000 -22.000000 -5.672052 210 188 147
76.000000 -22.000000 13.116620 212 189 147
77.000000 -22.000000 13.116620 213 190 147
78.000000 -22.000000 1.063510 214 191 147
79.000000 -22.000000 1.063510 215 192 148
80.000000 -22.000000 1.063510 216 194 149
81.000000 -22.000000 0.709006 217 195 147
82.000000 -22.000000 0.354503 218 196 148
83.000000 -22.000000 0.354503 219 196 152
84.000000 -22.000000 0.000000 220 197 153
85.000000 -22.000000 -0.354503 221 198 153
86.000000 -22.000000 -0.709006 222 199 156
87.000000 -22.000000 -5.672052 224 201 159
88.000000 -22.000000 -5.672052 226 203 161
89.000000 -22.000000 -5.672052 227 204 161
90.000000 -22.000000 -5.672052 227 204 160
91.000000 -22.000000 -5.672052 228 205 161
92.000000 -22.000000 -2.127019 229 207 163
93.000000 -22.000000 0.000000 229 210 167
94.000000 -22.000000 12.407614 230 211 168
95.000000 -22.000000 15.243640 230 211 168
96.000000 -22.000000 15.952646 230 212 168
97.000000 -22.000000 16.661652 231 212 169
98.000000 -22.000000 18.434168 231 213 170
99.000000 -22.000000 18.434168 231 214 171
100.000000 -22.000000 19.143175 231 215 172
101.000000 -22.000000 40.413368 231 215 172
102.000000 -22.000000 40.413368 231 216 173
103.000000 -22.000000 -5.672052 231 216 176
119.000000 -22.000000 74.445679 231 223 190
120.000000 -22.000000 76.218201 230 222 189
121.000000 -22.000000 77.281708 229 221 189
122.000000 -22.000000 79.054222 230 222 190
123.000000 -22.000000 79.763229 229 222 190
124.000000 -22.000000 79.408730 228 222 191
127.000000 -22.000000 125.494148 224 219 188
128.000000 -22.000000 127.621170 223 218 190
129.000000 -22.000000 129.039185 222 218 189
130.000000 -22.000000 128.684677 222 217 189
131.000000 -22.000000 124.076134 222 218 191
134.000000 -22.000000 81.890251 218 217 192
135.000000 -22.000000 83.308266 215 213 189
136.000000 -22.000000 83.662766 213 210 185
137.000000 -22.000000 85.435280 211 207 183
138.000000 -22.000000 85.435280 206 203 179
141.000000 -22.000000 115.922562 193 191 166
142.000000 -22.000000 119.822098 189 188 165
143.000000 -22.000000 121.240112 187 184 163
144.000000 -22.000000 124.430641 183 179 157
145.000000 -22.000000 127.975670 178 174 151
146.000000 -22.000000 128.684677 174 169 145
147.000000 -22.000000 129.393677 163 157 135
148.000000 -22.000000 130.457199 100 97 88
149.000000 -22.000000 131.166199 47 49 50
150.000000 -22.000000 135.774750 40 44 47
151.000000 -22.000000 136.129242 37 39 42
152.000000 -22.000000 109.896004 34 34 36
154.000000 -22.000000 112.377525 34 33 34
155.000000 -22.000000 143.219315 50 49 44
156.000000 -22.000000 143.928314 82 79 74
157.000000 -22.000000 145.346329 85 81 76
158.000000 -22.000000 145.346329 55 53 52
66.000000 -23.000000 -5.672052 181 170 155
67.000000 -23.000000 -5.672052 199 178 140
68.000000 -23.000000 -5.672052 202 180 138
69.000000 -23.000000 -5.672052 202 180 139
70.000000 -23.000000 -5.672052 203 181 140
71.000000 -23.000000 -5.672052 205 183 143
72.000000 -23.000000 -5.672052 207 185 144
75.000000 -23.000000 12.762116 210 188 146
76.000000 -23.000000 13.825626 211 188 146
77.000000 -23.000000 14.534633 212 190 146
78.000000 -23.000000 15.598143 213 190 146
79.000000 -23.000000 15.598143 214 192 147
80.000000 -23.000000 1.063510 216 193 147
81.000000 -23.000000 0.000000 216 194 146
82.000000 -23.000000 0.000000 217 195 148
83.000000 -23.000000 0.354503 218 195 151
84.000000 -23.000000 0.000000 219 196 151
85.000000 -23.000000 -0.354503 220 197 151
86.000000 -23.000000 -5.672052 221 198 155
87.000000 -23.000000 -5.672052 222 200 158
88.000000 -23.000000 -5.672052 224 202 159
89.000000 -23.000000 -5.672052 226 203 159
90.000000 -23.000000 -5.672052 227 204 160
91.000000 -23.000000 -5.672052 227 204 160
92.000000 -23.000000 -5.672052 228 205 164
93.000000 -23.000000 0.000000 229 207 165
94.000000 -23.000000 12.407614 230 209 166
