ply
		format ascii 1.0
		element vertex 8170
		property float x
		property float y
		property float z
		property uchar red
		property uchar green
		property uchar blue
		end_header
97.000000 -13.000000 26.942247 109 145 238
98.000000 -13.000000 28.360260 110 146 242
99.000000 -13.000000 28.714764 113 150 248
100.000000 -13.000000 29.069265 118 155 252
101.000000 -13.000000 0.709006 121 157 254
102.000000 -13.000000 -0.354503 124 161 255
103.000000 -13.000000 0.709006 124 164 255
104.000000 -13.000000 1.418013 126 166 255
105.000000 -13.000000 1.772516 126 167 255
106.000000 -13.000000 1.772516 128 168 255
111.000000 -13.000000 0.000000 132 177 254
112.000000 -13.000000 0.000000 135 181 254
113.000000 -13.000000 0.000000 138 185 254
114.000000 -13.000000 1.418013 140 187 254
115.000000 -13.000000 21.979200 141 187 254
116.000000 -13.000000 21.979200 140 186 254
117.000000 -13.000000 68.064621 141 187 255
118.000000 -13.000000 73.736671 142 189 255
119.000000 -13.000000 76.927200 143 190 254
120.000000 -13.000000 79.054222 145 192 255
121.000000 -13.000000 79.054222 147 194 254
122.000000 -13.000000 70.191643 147 193 254
123.000000 -13.000000 70.191643 146 192 254
124.000000 -13.000000 70.191643 145 191 254
125.000000 -13.000000 135.065735 145 191 254
126.000000 -13.000000 135.065735 148 194 254
127.000000 -13.000000 135.065735 150 196 254
128.000000 -13.000000 135.065735 148 194 254
129.000000 -13.000000 136.129242 145 191 253
130.000000 -13.000000 136.838257 141 188 254
131.000000 -13.000000 137.547256 141 190 254
132.000000 -13.000000 139.319778 139 188 254
133.000000 -13.000000 139.674271 138 187 254
134.000000 -13.000000 139.674271 137 186 255
135.000000 -13.000000 139.319778 134 183 254
136.000000 -13.000000 138.965271 132 181 254
137.000000 -13.000000 138.610764 131 178 254
138.000000 -13.000000 138.610764 128 175 254
139.000000 -13.000000 138.256271 126 172 254
140.000000 -13.000000 138.256271 126 170 254
141.000000 -13.000000 138.256271 113 146 218
142.000000 -13.000000 138.610764 75 88 117
143.000000 -13.000000 141.446793 64 71 78
144.000000 -13.000000 142.155807 60 64 71
145.000000 -13.000000 143.573807 55 58 64
146.000000 -13.000000 146.055344 52 53 59
147.000000 -13.000000 147.118851 53 54 57
148.000000 -13.000000 147.473343 66 66 65
149.000000 -13.000000 147.473343 120 120 118
150.000000 -13.000000 148.536865 140 140 140
151.000000 -13.000000 148.536865 87 88 90
152.000000 -13.000000 148.891357 40 46 55
153.000000 -13.000000 151.372879 34 49 62
154.000000 -13.000000 153.145401 32 49 63
155.000000 -13.000000 155.626923 34 53 68
156.000000 -13.000000 157.753937 41 61 79
157.000000 -13.000000 158.817459 43 64 84
158.000000 -13.000000 158.817459 38 58 77
63.000000 -14.000000 18.788671 66 89 155
64.000000 -14.000000 20.561188 67 90 157
65.000000 -14.000000 21.624699 68 91 159
66.000000 -14.000000 22.688208 70 93 161
67.000000 -14.000000 23.042711 70 95 163
68.000000 -14.000000 24.106220 69 95 164
69.000000 -14.000000 22.688208 69 96 165
70.000000 -14.000000 21.979200 71 98 167
71.000000 -14.000000 21.624699 73 100 170
72.000000 -14.000000 21.270195 74 101 172
73.000000 -14.000000 20.561188 73 102 175
74.000000 -14.000000 20.915691 73 104 179
75.000000 -14.000000 21.624699 74 106 180
76.000000 -14.000000 21.979200 76 107 182
77.000000 -14.000000 22.688208 77 108 184
78.000000 -14.000000 24.106220 78 109 189
79.000000 -14.000000 26.587744 79 110 193
80.000000 -14.000000 27.296749 81 112 195
81.000000 -14.000000 28.005756 83 113 199
82.000000 -14.000000 28.005756 85 115 202
83.000000 -14.000000 28.714764 87 117 202
84.000000 -14.000000 30.487280 88 119 203
85.000000 -14.000000 33.677807 88 120 207
86.000000 -14.000000 35.095821 90 123 210
87.000000 -14.000000 36.159332 92 126 213
88.000000 -14.000000 36.159332 94 127 216
89.000000 -14.000000 34.386814 96 129 219
90.000000 -14.000000 29.423769 97 130 221
91.000000 -14.000000 29.069265 98 132 224
92.000000 -14.000000 28.714764 100 134 228
93.000000 -14.000000 29.069265 103 136 231
94.000000 -14.000000 29.778273 104 138 233
95.000000 -14.000000 29.778273 106 141 235
96.000000 -14.000000 28.714764 107 143 237
97.000000 -14.000000 28.714764 108 145 237
98.000000 -14.000000 29.423769 110 145 241
99.000000 -14.000000 31.196285 115 149 247
100.000000 -14.000000 32.968803 118 152 250
101.000000 -14.000000 33.677807 119 155 252
102.000000 -14.000000 30.132776 123 159 254
103.000000 -14.000000 29.778273 125 162 254
104.000000 -14.000000 29.069265 125 163 254
105.000000 -14.000000 28.360260 125 165 254
106.000000 -14.000000 28.360260 127 166 255
107.000000 -14.000000 -0.354503 129 167 255
108.000000 -14.000000 -0.709006 130 168 254
109.000000 -14.000000 -0.354503 131 171 255
110.000000 -14.000000 1.772516 132 173 254
111.000000 -14.000000 2.481523 130 172 254
114.000000 -14.000000 63.101578 138 180 255
115.000000 -14.000000 63.101578 138 181 255
119.000000 -14.000000 77.990715 139 183 255
120.000000 -14.000000 98.906403 141 186 255
121.000000 -14.000000 101.387924 143 189 254
122.000000 -14.000000 98.906403 143 189 254
123.000000 -14.000000 70.191643 143 190 254
124.000000 -14.000000 70.191643 141 187 254
125.000000 -14.000000 70.191643 141 187 254
126.000000 -14.000000 135.065735 144 190 254
127.000000 -14.000000 135.065735 144 190 255
128.000000 -14.000000 135.774750 143 188 254
129.000000 -14.000000 136.129242 141 187 254
130.000000 -14.000000 136.838257 140 185 254
131.000000 -14.000000 138.256271 138 185 254
132.000000 -14.000000 139.319778 136 185 255
133.000000 -14.000000 139.319778 136 184 254
134.000000 -14.000000 139.319778 135 183 254
135.000000 -14.000000 138.256271 134 181 254
136.000000 -14.000000 137.547256 131 179 254
137.000000 -14.000000 137.547256 128 175 254
138.000000 -14.000000 137.901764 125 172 254
139.000000 -14.000000 137.901764 122 167 254
140.000000 -14.000000 137.901764 122 165 253
141.000000 -14.000000 137.901764 113 144 217
142.000000 -14.000000 138.610764 78 91 118
143.000000 -14.000000 141.092285 68 75 81
144.000000 -14.000000 142.155807 64 68 73
145.000000 -14.000000 143.573807 59 63 68
146.000000 -14.000000 146.055344 55 58 62
147.000000 -14.000000 147.118851 55 57 59
148.000000 -14.000000 147.473343 69 69 68
149.000000 -14.000000 147.827850 119 120 118
150.000000 -14.000000 148.536865 134 134 134
151.000000 -14.000000 148.891357 82 83 84
152.000000 -14.000000 148.891357 39 46 52
153.000000 -14.000000 151.372879 35 48 62
154.000000 -14.000000 153.145401 34 48 64
155.000000 -14.000000 155.626923 34 50 67
156.000000 -14.000000 157.753937 39 57 75
157.000000 -14.000000 158.108444 42 62 80
158.000000 -14.000000 158.108444 38 58 74
63.000000 -15.000000 18.788671 66 89 155
64.000000 -15.000000 20.561188 68 91 157
65.000000 -15.000000 21.624699 69 92 158
66.000000 -15.000000 22.688208 71 93 160
67.000000 -15.000000 24.460724 70 95 162
68.000000 -15.000000 24.815228 69 95 163
69.000000 -15.000000 24.106220 69 96 164
70.000000 -15.000000 22.688208 72 98 167
71.000000 -15.000000 22.688208 73 99 170
72.000000 -15.000000 22.333704 74 101 173
73.000000 -15.000000 21.624699 75 103 174
74.000000 -15.000000 20.915691 76 104 177
75.000000 -15.000000 20.915691 77 106 178
76.000000 -15.000000 21.979200 78 107 179
77.000000 -15.000000 22.688208 78 108 182
78.000000 -15.000000 24.106220 78 109 188
79.000000 -15.000000 26.587744 80 110 191
80.000000 -15.000000 27.651253 81 112 193
81.000000 -15.000000 28.005756 83 113 196
82.000000 -15.000000 28.714764 85 115 199
83.000000 -15.000000 30.487280 87 116 200
84.000000 -15.000000 33.677807 88 118 201
85.000000 -15.000000 35.095821 89 119 205
86.000000 -15.000000 36.513836 92 121 208
87.000000 -15.000000 37.577343 93 124 210
88.000000 -15.000000 37.577343 95 126 213
89.000000 -15.000000 30.487280 97 128 215
90.000000 -15.000000 29.069265 97 129 216
91.000000 -15.000000 28.714764 98 131 218
92.000000 -15.000000 28.714764 99 133 221
93.000000 -15.000000 29.069265 102 136 225
94.000000 -15.000000 29.778273 105 139 229
95.000000 -15.000000 29.778273 107 142 232
96.000000 -15.000000 30.132776 108 143 234
97.000000 -15.000000 30.132776 109 144 236
98.000000 -15.000000 30.487280 110 144 238
99.000000 -15.000000 30.841782 113 146 241
100.000000 -15.000000 31.905293 116 149 244
101.000000 -15.000000 33.677807 117 152 247
102.000000 -15.000000 30.487280 121 156 249
103.000000 -15.000000 30.132776 123 159 250
104.000000 -15.000000 29.423769 123 159 250
105.000000 -15.000000 29.423769 124 161 250
106.000000 -15.000000 29.778273 126 162 252
107.000000 -15.000000 28.360260 128 164 252
108.000000 -15.000000 0.709006 129 164 251
109.000000 -15.000000 1.772516 130 167 251
110.000000 -15.000000 6.381058 131 169 251
111.000000 -15.000000 8.153575 130 169 251
120.000000 -15.000000 99.969917 138 180 248
121.000000 -15.000000 101.387924 138 181 247
122.000000 -15.000000 70.191643 140 183 247
123.000000 -15.000000 69.482635 139 181 247
124.000000 -15.000000 69.482635 137 179 247
125.000000 -15.000000 69.482635 136 178 247
126.000000 -15.000000 70.900650 136 179 246
127.000000 -15.000000 135.420242 135 179 246
128.000000 -15.000000 136.129242 135 178 245
129.000000 -15.000000 136.129242 135 177 243
130.000000 -15.000000 137.547256 132 175 242
131.000000 -15.000000 138.610764 129 174 241
132.000000 -15.000000 139.319778 130 174 241
133.000000 -15.000000 139.319778 130 172 241
134.000000 -15.000000 138.256271 128 172 240
135.000000 -15.000000 137.547256 127 169 240
136.000000 -15.000000 137.547256 125 167 240
137.000000 -15.000000 137.547256 122 165 239
138.000000 -15.000000 137.547256 120 161 237
139.000000 -15.000000 137.901764 118 158 236
140.000000 -15.000000 137.901764 124 162 234
141.000000 -15.000000 137.901764 118 146 201
142.000000 -15.000000 137.901764 80 93 116
143.000000 -15.000000 141.092285 70 78 85
144.000000 -15.000000 142.155807 65 71 77
145.000000 -15.000000 143.219315 61 66 72
146.000000 -15.000000 146.055344 56 60 66
147.000000 -15.000000 147.118851 58 59 63
148.000000 -15.000000 147.473343 71 71 72
149.000000 -15.000000 147.827850 119 119 118
150.000000 -15.000000 148.536865 130 130 129
151.000000 -15.000000 148.891357 79 81 80
152.000000 -15.000000 148.891357 39 47 51
153.000000 -15.000000 151.372879 36 48 59
154.000000 -15.000000 153.145401 35 47 60
155.000000 -15.000000 155.626923 34 49 64
156.000000 -15.000000 157.399445 38 55 72
157.000000 -15.000000 157.753937 41 60 77
158.000000 -15.000000 157.753937 38 58 73
63.000000 -16.000000 17.016155 70 90 149
64.000000 -16.000000 20.561188 72 91 151
65.000000 -16.000000 21.624699 73 92 152
66.000000 -16.000000 23.042711 74 92 154
67.000000 -16.000000 24.815228 73 94 157
68.000000 -16.000000 25.169731 72 95 157
69.000000 -16.000000 24.815228 72 95 156
70.000000 -16.000000 24.106220 73 96 158
71.000000 -16.000000 23.042711 75 98 161
72.000000 -16.000000 22.688208 76 100 160
73.000000 -16.000000 22.333704 77 101 161
74.000000 -16.000000 21.624699 78 102 163
75.000000 -16.000000 20.915691 79 103 163
76.000000 -16.000000 20.206684 80 104 166
77.000000 -16.000000 21.624699 80 105 170
78.000000 -16.000000 22.688208 81 105 171
79.000000 -16.000000 25.169731 83 107 173
80.000000 -16.000000 26.587744 84 109 175
81.000000 -16.000000 28.005756 86 110 177
82.000000 -16.000000 28.714764 88 111 178
83.000000 -16.000000 30.841782 89 112 179
84.000000 -16.000000 34.032310 90 113 180
85.000000 -16.000000 36.513836 91 114 183
86.000000 -16.000000 37.577343 93 116 185
87.000000 -16.000000 37.577343 94 119 186
88.000000 -16.000000 30.487280 95 120 188
89.000000 -16.000000 28.360260 96 122 188
90.000000 -16.000000 28.005756 96 123 188
91.000000 -16.000000 26.587744 96 123 189
92.000000 -16.000000 27.296749 97 125 191
93.000000 -16.000000 28.360260 101 128 193
94.000000 -16.000000 29.778273 103 131 196
95.000000 -16.000000 30.132776 104 133 199
96.000000 -16.000000 32.614300 104 133 201
97.000000 -16.000000 32.614300 105 134 200
98.000000 -16.000000 30.487280 107 133 200
99.000000 -16.000000 30.487280 108 132 200
100.000000 -16.000000 30.487280 110 134 202
101.000000 -16.000000 30.487280 111 137 203
102.000000 -16.000000 30.132776 112 139 202
103.000000 -16.000000 29.069265 112 142 204
104.000000 -16.000000 29.069265 113 143 205
105.000000 -16.000000 29.778273 113 142 206
106.000000 -16.000000 29.778273 114 143 206
107.000000 -16.000000 30.132776 116 143 204
108.000000 -16.000000 3.899536 116 143 202
109.000000 -16.000000 1.772516 117 144 202
110.000000 -16.000000 3.899536 118 146 201
127.000000 -16.000000 136.129242 117 143 182
128.000000 -16.000000 136.129242 117 144 181
129.000000 -16.000000 136.838257 116 143 176
130.000000 -16.000000 137.901764 115 141 172
131.000000 -16.000000 138.610764 115 140 170
132.000000 -16.000000 139.319778 115 139 169
133.000000 -16.000000 139.319778 115 139 170
134.000000 -16.000000 137.901764 115 139 170
135.000000 -16.000000 137.547256 114 137 169
136.000000 -16.000000 137.192749 113 136 170
137.000000 -16.000000 137.192749 112 135 169
138.000000 -16.000000 137.547256 111 134 166
139.000000 -16.000000 137.547256 113 135 164
140.000000 -16.000000 137.547256 119 138 163
141.000000 -16.000000 137.901764 108 124 141
142.000000 -16.000000 137.901764 79 88 99
143.000000 -16.000000 141.092285 74 82 89
144.000000 -16.000000 141.801300 68 75 84
145.000000 -16.000000 143.219315 62 69 78
146.000000 -16.000000 146.055344 57 62 70
147.000000 -16.000000 147.118851 59 59 65
148.000000 -16.000000 147.473343 73 72 74
149.000000 -16.000000 147.827850 118 119 117
150.000000 -16.000000 148.536865 125 126 123
151.000000 -16.000000 148.891357 78 79 78
152.000000 -16.000000 148.891357 40 47 51
153.000000 -16.000000 151.018387 36 48 55
154.000000 -16.000000 153.145401 35 48 57
155.000000 -16.000000 155.272415 34 50 62
156.000000 -16.000000 157.044937 35 54 70
157.000000 -16.000000 157.399445 38 58 75
158.000000 -16.000000 157.399445 37 56 71
63.000000 -17.000000 7.444568 114 117 133
64.000000 -17.000000 17.016155 116 118 132
65.000000 -17.000000 21.270195 118 120 132
66.000000 -17.000000 22.688208 119 122 134
67.000000 -17.000000 24.815228 121 124 136
68.000000 -17.000000 25.169731 121 124 136
69.000000 -17.000000 24.815228 121 125 136
70.000000 -17.000000 24.106220 124 127 137
71.000000 -17.000000 24.106220 125 129 140
72.000000 -17.000000 23.042711 127 131 140
73.000000 -17.000000 22.688208 130 133 140
74.000000 -17.000000 21.624699 133 135 140
75.000000 -17.000000 20.206684 136 138 141
76.000000 -17.000000 19.852182 138 139 146
77.000000 -17.000000 20.206684 139 140 150
78.000000 -17.000000 21.624699 138 141 149
79.000000 -17.000000 23.397215 141 144 147
80.000000 -17.000000 26.233240 143 146 150
81.000000 -17.000000 27.651253 146 149 154
82.000000 -17.000000 28.714764 147 151 156
83.000000 -17.000000 30.841782 149 152 156
84.000000 -17.000000 34.032310 152 154 157
85.000000 -17.000000 36.513836 154 157 160
86.000000 -17.000000 37.577343 156 159 163
87.000000 -17.000000 6.381058 156 160 164
88.000000 -17.000000 7.799071 158 162 167
89.000000 -17.000000 10.989600 158 165 168
90.000000 -17.000000 21.624699 158 166 168
91.000000 -17.000000 23.751717 158 167 169
92.000000 -17.000000 24.815228 160 169 170
93.000000 -17.000000 27.296749 161 172 172
94.000000 -17.000000 29.778273 163 174 174
95.000000 -17.000000 31.550789 164 175 175
96.000000 -17.000000 34.032310 165 176 177
97.000000 -17.000000 33.323303 167 177 178
98.000000 -17.000000 1.418013 167 177 180
99.000000 -17.000000 1.418013 169 178 185
100.000000 -17.000000 7.444568 171 180 188
101.000000 -17.000000 26.942247 171 181 188
102.000000 -17.000000 28.005756 172 183 189
103.000000 -17.000000 28.005756 172 185 193
104.000000 -17.000000 28.005756 174 186 195
105.000000 -17.000000 28.714764 176 185 197
106.000000 -17.000000 29.778273 177 187 199
107.000000 -17.000000 31.905293 178 187 199
108.000000 -17.000000 31.905293 179 187 198
109.000000 -17.000000 3.899536 180 188 198
127.000000 -17.000000 136.129242 199 204 205
128.000000 -17.000000 136.838257 200 206 206
129.000000 -17.000000 137.901764 200 206 206
130.000000 -17.000000 137.901764 201 207 205
131.000000 -17.000000 138.965271 202 207 205
132.000000 -17.000000 139.319778 202 207 206
133.000000 -17.000000 139.319778 203 208 209
134.000000 -17.000000 137.901764 204 208 209
135.000000 -17.000000 137.901764 204 208 208
136.000000 -17.000000 137.192749 206 210 208
137.000000 -17.000000 137.192749 206 211 210
138.000000 -17.000000 137.547256 206 211 208
139.000000 -17.000000 137.547256 207 211 202
140.000000 -17.000000 137.547256 207 211 199
141.000000 -17.000000 137.547256 168 171 163
142.000000 -17.000000 137.901764 92 98 100
143.000000 -17.000000 141.092285 77 85 90
144.000000 -17.000000 141.801300 71 78 87
145.000000 -17.000000 142.864807 65 72 82
146.000000 -17.000000 146.055344 58 65 72
147.000000 -17.000000 146.764343 60 61 66
148.000000 -17.000000 147.473343 75 75 76
149.000000 -17.000000 147.827850 118 118 117
150.000000 -17.000000 148.536865 122 122 119
151.000000 -17.000000 148.891357 77 78 77
152.000000 -17.000000 148.891357 42 48 55
153.000000 -17.000000 151.018387 36 48 60
154.000000 -17.000000 153.145401 35 48 62
155.000000 -17.000000 154.563416 34 51 66
156.000000 -17.000000 156.690430 33 53 71
157.000000 -17.000000 157.044937 37 56 74
158.000000 -17.000000 156.690430 39 55 71
63.000000 -18.000000 6.026555 213 190 154
64.000000 -18.000000 6.735562 215 191 151
65.000000 -18.000000 6.735562 218 194 150
66.000000 -18.000000 21.624699 220 197 152
67.000000 -18.000000 23.042711 223 199 156
68.000000 -18.000000 24.815228 224 200 154
69.000000 -18.000000 24.460724 225 202 155
70.000000 -18.000000 24.106220 227 204 158
71.000000 -18.000000 24.106220 229 205 160
72.000000 -18.000000 24.106220 231 207 161
73.000000 -18.000000 23.042711 233 209 162
74.000000 -18.000000 21.624699 236 211 164
75.000000 -18.000000 20.206684 238 213 166
76.000000 -18.000000 20.206684 238 214 167
77.000000 -18.000000 20.206684 239 215 170
78.000000 -18.000000 21.624699 239 217 171
79.000000 -18.000000 22.688208 239 220 173
80.000000 -18.000000 23.751717 240 222 176
81.000000 -18.000000 26.233240 241 225 180
82.000000 -18.000000 28.005756 241 228 184
83.000000 -18.000000 28.714764 242 230 187
84.000000 -18.000000 30.841782 243 231 188
85.000000 -18.000000 33.677807 244 233 191
86.000000 -18.000000 3.545033 244 235 193
87.000000 -18.000000 4.254039 243 237 196
88.000000 -18.000000 5.672052 244 238 199
89.000000 -18.000000 8.153575 242 241 203
90.000000 -18.000000 11.344104 241 242 205
91.000000 -18.000000 21.979200 242 242 204
92.000000 -18.000000 24.460724 243 243 205
93.000000 -18.000000 27.296749 242 245 212
94.000000 -18.000000 31.550789 242 245 216
95.000000 -18.000000 34.032310 242 246 214
96.000000 -18.000000 34.741318 243 246 216
97.000000 -18.000000 1.418013 244 246 221
98.000000 -18.000000 0.709006 244 246 226
99.000000 -18.000000 1.418013 244 246 232
100.000000 -18.000000 3.899536 245 247 236
101.000000 -18.000000 6.381058 245 248 238
102.000000 -18.000000 6.735562 246 248 239
103.000000 -18.000000 8.153575 246 248 243
104.000000 -18.000000 26.942247 247 248 244
105.000000 -18.000000 28.005756 247 248 246
106.000000 -18.000000 28.714764 247 248 247
107.000000 -18.000000 31.905293 248 248 247
108.000000 -18.000000 31.905293 248 248 248
109.000000 -18.000000 3.545033 248 248 248
119.000000 -18.000000 132.584213 249 250 249
120.000000 -18.000000 132.584213 249 250 249
127.000000 -18.000000 136.129242 251 251 250
128.000000 -18.000000 137.192749 251 251 250
129.000000 -18.000000 137.901764 251 251 250
130.000000 -18.000000 138.610764 251 252 248
131.000000 -18.000000 139.319778 251 252 247
132.000000 -18.000000 139.674271 251 251 249
133.000000 -18.000000 139.674271 251 251 250
134.000000 -18.000000 138.256271 251 251 250
135.000000 -18.000000 137.901764 251 251 250
136.000000 -18.000000 137.547256 251 252 247
137.000000 -18.000000 137.192749 251 252 245
138.000000 -18.000000 137.547256 250 251 240
139.000000 -18.000000 137.547256 248 249 230
140.000000 -18.000000 137.547256 246 246 222
141.000000 -18.000000 137.901764 194 195 181
142.000000 -18.000000 137.901764 99 104 106
143.000000 -18.000000 141.092285 80 88 94
144.000000 -18.000000 141.801300 73 81 90
145.000000 -18.000000 142.864807 68 76 85
146.000000 -18.000000 146.055344 61 67 74
147.000000 -18.000000 146.764343 60 62 66
148.000000 -18.000000 147.473343 76 76 76
149.000000 -18.000000 147.827850 118 118 118
150.000000 -18.000000 148.536865 120 119 118
151.000000 -18.000000 148.891357 77 77 76
152.000000 -18.000000 148.891357 42 48 58
153.000000 -18.000000 151.018387 36 48 64
154.000000 -18.000000 152.436401 34 49 65
155.000000 -18.000000 153.499908 32 50 67
156.000000 -18.000000 155.626923 32 53 69
157.000000 -18.000000 156.690430 36 56 73
158.000000 -18.000000 155.626923 39 56 72
63.000000 -19.000000 5.672052 237 208 156
64.000000 -19.000000 6.026555 239 210 156
65.000000 -19.000000 5.672052 240 211 156
66.000000 -19.000000 4.963046 243 214 160
67.000000 -19.000000 22.688208 245 215 162
68.000000 -19.000000 24.106220 245 217 158
69.000000 -19.000000 24.106220 247 218 159
70.000000 -19.000000 24.106220 248 219 161
71.000000 -19.000000 24.106220 250 221 161
72.000000 -19.000000 24.106220 251 223 161
73.000000 -19.000000 23.042711 252 224 162
74.000000 -19.000000 21.624699 254 226 165
75.000000 -19.000000 20.915691 255 226 167
76.000000 -19.000000 20.561188 255 227 168
77.000000 -19.000000 20.915691 255 227 169
78.000000 -19.000000 21.979200 254 229 171
79.000000 -19.000000 22.688208 255 232 174
80.000000 -19.000000 22.688208 255 234 179
81.000000 -19.000000 24.106220 255 236 183
82.000000 -19.000000 25.169731 255 239 185
83.000000 -19.000000 25.169731 255 241 187
84.000000 -19.000000 -0.354503 255 242 188
85.000000 -19.000000 1.063510 255 243 191
86.000000 -19.000000 3.545033 254 245 193
87.000000 -19.000000 4.254039 253 247 197
88.000000 -19.000000 5.672052 252 248 200
89.000000 -19.000000 8.153575 251 249 202
90.000000 -19.000000 11.344104 250 250 205
91.000000 -19.000000 21.979200 251 251 206
92.000000 -19.000000 24.460724 251 251 209
93.000000 -19.000000 27.651253 250 253 214
94.000000 -19.000000 32.614300 249 253 218
95.000000 -19.000000 34.741318 249 253 219
96.000000 -19.000000 34.741318 249 253 220
97.000000 -19.000000 -0.354503 250 253 226
98.000000 -19.000000 -0.354503 250 252 233
99.000000 -19.000000 0.709006 250 252 237
100.000000 -19.000000 3.545033 251 253 240
101.000000 -19.000000 4.608542 251 253 243
102.000000 -19.000000 5.317549 252 253 247
103.000000 -19.000000 6.735562 252 253 248
104.000000 -19.000000 9.926091 252 253 248
105.000000 -19.000000 26.942247 252 253 249
106.000000 -19.000000 28.005756 252 253 249
107.000000 -19.000000 30.132776 252 253 249
108.000000 -19.000000 30.132776 252 253 250
109.000000 -19.000000 3.545033 252 252 251
118.000000 -19.000000 134.356735 252 252 252
119.000000 -19.000000 134.356735 252 252 251
120.000000 -19.000000 132.938721 252 252 251
127.000000 -19.000000 137.192749 252 252 252
128.000000 -19.000000 137.901764 252 252 252
129.000000 -19.000000 138.256271 252 252 252
130.000000 -19.000000 139.319778 252 252 250
131.000000 -19.000000 140.028778 252 253 248
132.000000 -19.000000 139.674271 252 253 249
133.000000 -19.000000 139.674271 252 253 249
134.000000 -19.000000 138.256271 252 253 250
135.000000 -19.000000 137.547256 252 253 250
136.000000 -19.000000 137.192749 252 253 246
137.000000 -19.000000 137.547256 250 252 240
138.000000 -19.000000 137.547256 249 251 232
139.000000 -19.000000 137.547256 248 250 225
140.000000 -19.000000 137.547256 243 244 216
141.000000 -19.000000 137.901764 190 192 175
142.000000 -19.000000 137.901764 101 106 107
143.000000 -19.000000 141.092285 83 91 99
144.000000 -19.000000 141.801300 76 83 91
145.000000 -19.000000 142.864807 70 78 86
146.000000 -19.000000 146.055344 62 70 77
147.000000 -19.000000 146.764343 62 64 67
148.000000 -19.000000 147.473343 77 77 77
149.000000 -19.000000 147.827850 118 117 118
150.000000 -19.000000 148.536865 118 115 116
151.000000 -19.000000 148.891357 75 74 74
152.000000 -19.000000 148.891357 42 48 56
153.000000 -19.000000 150.309372 35 48 63
154.000000 -19.000000 152.081894 34 49 64
155.000000 -19.000000 152.790894 33 51 68
156.000000 -19.000000 154.563416 32 53 71
157.000000 -19.000000 155.626923 36 56 74
158.000000 -19.000000 155.272415 39 56 72
63.000000 -20.000000 5.672052 238 208 153
64.000000 -20.000000 6.026555 240 210 157
65.000000 -20.000000 5.672052 242 212 159
66.000000 -20.000000 4.963046 245 215 160
67.000000 -20.000000 22.688208 245 216 160
68.000000 -20.000000 24.106220 246 217 159
69.000000 -20.000000 24.106220 247 218 162
70.000000 -20.000000 24.106220 249 219 161
71.000000 -20.000000 24.106220 251 222 161
72.000000 -20.000000 23.751717 251 223 161
73.000000 -20.000000 22.688208 252 225 160
74.000000 -20.000000 21.624699 254 226 163
75.000000 -20.000000 21.624699 255 227 166
76.000000 -20.000000 20.915691 254 228 168
77.000000 -20.000000 21.979200 254 228 168
78.000000 -20.000000 22.688208 254 230 171
79.000000 -20.000000 22.688208 255 233 172
80.000000 -20.000000 22.688208 255 234 174
81.000000 -20.000000 22.688208 255 237 180
82.000000 -20.000000 23.042711 255 238 183
83.000000 -20.000000 -0.354503 255 239 185
84.000000 -20.000000 -0.354503 255 242 186
85.000000 -20.000000 -0.354503 255 243 188
86.000000 -20.000000 1.772516 254 245 191
87.000000 -20.000000 4.963046 252 248 194
88.000000 -20.000000 7.090065 252 249 196
89.000000 -20.000000 11.344104 252 249 198
90.000000 -20.000000 17.725163 252 249 199
91.000000 -20.000000 21.979200 252 251 202
92.000000 -20.000000 24.460724 251 251 207
93.000000 -20.000000 28.360260 250 252 208
94.000000 -20.000000 33.677807 250 253 210
95.000000 -20.000000 36.513836 249 254 215
96.000000 -20.000000 36.513836 249 253 218
97.000000 -20.000000 -0.354503 250 253 224
98.000000 -20.000000 -0.354503 250 252 227
99.000000 -20.000000 0.000000 250 252 229
100.000000 -20.000000 1.772516 250 252 233
101.000000 -20.000000 3.545033 251 253 239
102.000000 -20.000000 4.963046 252 253 245
103.000000 -20.000000 6.735562 252 253 247
104.000000 -20.000000 9.926091 252 253 248
105.000000 -20.000000 23.751717 252 253 248
106.000000 -20.000000 27.651253 252 253 248
107.000000 -20.000000 30.132776 252 253 248
108.000000 -20.000000 30.132776 252 253 248
118.000000 -20.000000 135.065735 252 252 250
119.000000 -20.000000 134.356735 252 253 249
120.000000 -20.000000 132.584213 252 253 249
127.000000 -20.000000 136.838257 252 253 249
128.000000 -20.000000 137.547256 252 252 250
129.000000 -20.000000 138.256271 252 252 251
130.000000 -20.000000 139.674271 252 252 249
131.000000 -20.000000 140.028778 252 253 248
132.000000 -20.000000 140.028778 252 253 248
133.000000 -20.000000 139.674271 252 253 248
134.000000 -20.000000 137.901764 252 253 247
135.000000 -20.000000 137.192749 252 252 247
136.000000 -20.000000 136.838257 251 252 243
137.000000 -20.000000 137.192749 250 251 236
138.000000 -20.000000 137.547256 250 250 230
139.000000 -20.000000 137.547256 249 248 224
140.000000 -20.000000 137.547256 242 241 214
141.000000 -20.000000 137.901764 186 189 174
142.000000 -20.000000 137.901764 102 108 113
143.000000 -20.000000 140.737793 86 93 106
144.000000 -20.000000 141.801300 78 85 95
145.000000 -20.000000 142.864807 71 79 88
146.000000 -20.000000 146.055344 63 70 78
147.000000 -20.000000 146.764343 63 65 70
148.000000 -20.000000 147.473343 77 78 78
149.000000 -20.000000 147.827850 118 117 115
150.000000 -20.000000 148.536865 116 113 109
151.000000 -20.000000 148.891357 73 73 72
152.000000 -20.000000 148.891357 41 49 56
153.000000 -20.000000 150.309372 35 47 63
154.000000 -20.000000 151.727386 35 49 66
155.000000 -20.000000 152.436401 37 51 70
156.000000 -20.000000 153.854401 35 53 72
157.000000 -20.000000 154.917923 37 55 73
158.000000 -20.000000 154.917923 39 54 72
63.000000 -21.000000 6.381058 237 207 152
64.000000 -21.000000 7.090065 239 209 158
65.000000 -21.000000 7.090065 243 212 159
66.000000 -21.000000 22.688208 245 214 158
67.000000 -21.000000 24.106220 246 215 158
68.000000 -21.000000 24.106220 246 217 158
69.000000 -21.000000 24.106220 248 218 163
70.000000 -21.000000 24.106220 250 218 162
71.000000 -21.000000 23.751717 251 221 160
72.000000 -21.000000 23.397215 252 223 162
73.000000 -21.000000 22.688208 253 224 163
74.000000 -21.000000 21.979200 254 226 165
75.000000 -21.000000 21.624699 254 227 167
76.000000 -21.000000 22.333704 254 228 169
77.000000 -21.000000 22.688208 254 228 169
78.000000 -21.000000 22.688208 255 230 171
79.000000 -21.000000 22.688208 255 232 172
80.000000 -21.000000 22.333704 255 234 173
81.000000 -21.000000 22.333704 255 236 176
82.000000 -21.000000 -0.354503 255 237 180
83.000000 -21.000000 -0.354503 255 239 181
84.000000 -21.000000 -0.354503 255 240 184
85.000000 -21.000000 1.063510 255 242 186
86.000000 -21.000000 4.608542 254 245 188
87.000000 -21.000000 7.090065 252 247 191
88.000000 -21.000000 9.926091 252 249 194
89.000000 -21.000000 13.116620 252 249 196
90.000000 -21.000000 17.725163 252 249 197
91.000000 -21.000000 21.979200 252 250 201
92.000000 -21.000000 24.460724 251 251 207
93.000000 -21.000000 30.132776 250 251 208
94.000000 -21.000000 34.032310 250 252 207
95.000000 -21.000000 36.513836 249 253 211
96.000000 -21.000000 36.513836 249 253 218
97.000000 -21.000000 1.418013 249 252 222
98.000000 -21.000000 -0.709006 250 253 222
99.000000 -21.000000 -0.354503 249 252 222
100.000000 -21.000000 0.000000 249 252 226
101.000000 -21.000000 1.772516 250 252 233
102.000000 -21.000000 4.963046 251 253 240
103.000000 -21.000000 7.444568 252 253 244
104.000000 -21.000000 11.344104 252 253 245
105.000000 -21.000000 22.688208 252 253 245
106.000000 -21.000000 27.651253 252 253 246
107.000000 -21.000000 30.487280 252 253 247
108.000000 -21.000000 30.487280 252 253 248
117.000000 -21.000000 135.065735 252 253 249
118.000000 -21.000000 135.065735 252 253 249
119.000000 -21.000000 135.065735 252 253 248
120.000000 -21.000000 133.647720 252 253 248
127.000000 -21.000000 136.838257 252 253 248
128.000000 -21.000000 137.192749 252 253 248
129.000000 -21.000000 137.901764 252 253 248
130.000000 -21.000000 140.028778 252 253 247
131.000000 -21.000000 140.028778 252 253 247
132.000000 -21.000000 140.028778 252 253 246
133.000000 -21.000000 139.674271 252 253 245
134.000000 -21.000000 137.192749 252 253 242
135.000000 -21.000000 136.483749 251 252 237
136.000000 -21.000000 136.483749 250 252 232
137.000000 -21.000000 136.838257 249 251 228
138.000000 -21.000000 137.547256 249 249 223
139.000000 -21.000000 137.547256 248 246 215
140.000000 -21.000000 137.547256 243 240 207
141.000000 -21.000000 137.547256 183 184 168
142.000000 -21.000000 137.547256 100 107 113
143.000000 -21.000000 140.383286 86 94 108
144.000000 -21.000000 141.446793 80 87 102
145.000000 -21.000000 142.864807 73 81 94
146.000000 -21.000000 146.055344 65 72 82
147.000000 -21.000000 147.118851 63 67 72
148.000000 -21.000000 147.473343 78 78 77
149.000000 -21.000000 148.182358 116 116 109
150.000000 -21.000000 148.891357 113 109 102
151.000000 -21.000000 148.891357 74 71 69
152.000000 -21.000000 149.245865 41 48 55
153.000000 -21.000000 150.309372 35 48 62
154.000000 -21.000000 151.727386 35 49 66
155.000000 -21.000000 152.081894 37 52 69
156.000000 -21.000000 153.499908 36 53 71
157.000000 -21.000000 154.917923 36 55 72
158.000000 -21.000000 154.917923 37 54 71
63.000000 -22.000000 7.799071 238 207 152
64.000000 -22.000000 9.571588 239 208 155
65.000000 -22.000000 17.016155 241 210 156
66.000000 -22.000000 22.688208 244 213 156
67.000000 -22.000000 24.106220 245 215 156
68.000000 -22.000000 24.106220 245 217 155
69.000000 -22.000000 24.106220 248 217 161
70.000000 -22.000000 23.751717 250 218 163
71.000000 -22.000000 23.397215 250 219 161
72.000000 -22.000000 22.688208 252 221 162
73.000000 -22.000000 22.333704 253 223 165
74.000000 -22.000000 22.333704 254 225 166
75.000000 -22.000000 22.688208 254 225 166
76.000000 -22.000000 22.688208 255 226 167
77.000000 -22.000000 22.688208 255 228 167
78.000000 -22.000000 22.688208 255 230 169
79.000000 -22.000000 22.688208 255 231 171
80.000000 -22.000000 22.333704 255 232 173
81.000000 -22.000000 -1.063510 255 234 174
82.000000 -22.000000 -1.063510 255 236 176
83.000000 -22.000000 -1.063510 255 238 179
84.000000 -22.000000 0.354503 255 239 181
85.000000 -22.000000 3.899536 255 240 184
86.000000 -22.000000 6.026555 255 242 186
87.000000 -22.000000 8.862581 254 245 190
88.000000 -22.000000 11.344104 253 247 195
89.000000 -22.000000 13.825626 252 248 196
90.000000 -22.000000 17.016155 253 248 196
91.000000 -22.000000 19.852182 253 248 198
92.000000 -22.000000 24.460724 252 249 203
93.000000 -22.000000 30.487280 252 250 203
94.000000 -22.000000 34.032310 251 251 202
95.000000 -22.000000 35.804829 250 252 205
96.000000 -22.000000 35.804829 249 252 212
97.000000 -22.000000 -0.354503 249 252 213
98.000000 -22.000000 -1.418013 249 253 213
99.000000 -22.000000 -1.063510 249 253 216
100.000000 -22.000000 0.000000 249 252 222
101.000000 -22.000000 1.772516 250 252 230
102.000000 -22.000000 5.317549 250 252 236
103.000000 -22.000000 7.444568 251 252 238
104.000000 -22.000000 11.344104 252 253 240
105.000000 -22.000000 22.333704 252 253 241
106.000000 -22.000000 27.296749 252 253 240
107.000000 -22.000000 30.487280 251 253 241
108.000000 -22.000000 30.487280 252 253 244
117.000000 -22.000000 135.420242 252 253 247
118.000000 -22.000000 135.420242 252 253 247
119.000000 -22.000000 135.065735 252 253 247
120.000000 -22.000000 135.065735 252 253 247
127.000000 -22.000000 136.838257 252 253 245
128.000000 -22.000000 136.838257 252 253 246
129.000000 -22.000000 137.547256 252 253 244
130.000000 -22.000000 139.674271 251 253 241
131.000000 -22.000000 140.383286 251 253 240
132.000000 -22.000000 140.383286 250 252 240
133.000000 -22.000000 139.674271 250 251 240
134.000000 -22.000000 136.838257 250 251 236
135.000000 -22.000000 136.483749 250 252 228
136.000000 -22.000000 136.483749 249 252 225
137.000000 -22.000000 136.483749 248 249 222
138.000000 -22.000000 137.547256 247 247 216
139.000000 -22.000000 137.547256 245 244 210
140.000000 -22.000000 137.547256 239 238 203
141.000000 -22.000000 137.547256 180 180 163
142.000000 -22.000000 137.547256 98 104 109
143.000000 -22.000000 140.028778 87 96 110
144.000000 -22.000000 141.446793 82 92 108
145.000000 -22.000000 142.864807 73 84 98
146.000000 -22.000000 146.409836 65 73 84
147.000000 -22.000000 147.118851 65 68 73
148.000000 -22.000000 147.827850 80 80 78
149.000000 -22.000000 148.536865 114 114 107
150.000000 -22.000000 148.891357 108 105 99
151.000000 -22.000000 149.245865 73 70 69
152.000000 -22.000000 149.600372 42 48 53
153.000000 -22.000000 150.309372 34 47 60
154.000000 -22.000000 152.081894 34 49 66
155.000000 -22.000000 152.081894 36 52 69
156.000000 -22.000000 153.499908 35 52 69
157.000000 -22.000000 155.272415 36 54 71
158.000000 -22.000000 155.272415 36 53 70
63.000000 -23.000000 9.571588 238 206 151
64.000000 -23.000000 12.762116 240 208 154
65.000000 -23.000000 17.016155 241 210 155
66.000000 -23.000000 22.333704 243 213 156
67.000000 -23.000000 24.106220 244 215 156
68.000000 -23.000000 24.106220 245 217 154
69.000000 -23.000000 23.751717 247 217 157
70.000000 -23.000000 23.042711 249 218 160
71.000000 -23.000000 22.688208 249 219 158
72.000000 -23.000000 21.979200 250 222 159
73.000000 -23.000000 22.333704 252 223 164
74.000000 -23.000000 23.397215 253 225 163
75.000000 -23.000000 25.878736 254 225 163
76.000000 -23.000000 25.169731 255 225 164
77.000000 -23.000000 24.106220 255 227 165
78.000000 -23.000000 23.042711 255 229 168
79.000000 -23.000000 22.688208 255 230 171
80.000000 -23.000000 -5.672052 255 231 171
81.000000 -23.000000 -5.672052 255 232 173
82.000000 -23.000000 -5.672052 254 234 175
83.000000 -23.000000 -1.063510 255 237 179
84.000000 -23.000000 3.190529 255 238 182
85.000000 -23.000000 5.672052 255 239 184
86.000000 -23.000000 7.090065 255 241 185
87.000000 -23.000000 9.926091 255 242 188
88.000000 -23.000000 11.344104 255 244 190
89.000000 -23.000000 13.825626 254 246 191
90.000000 -23.000000 16.661652 253 246 191
91.000000 -23.000000 18.079666 254 246 193
92.000000 -23.000000 24.460724 253 247 198
93.000000 -23.000000 30.487280 252 248 200
94.000000 -23.000000 33.677807 252 249 200
95.000000 -23.000000 35.804829 251 250 203
96.000000 -23.000000 35.804829 251 251 206
97.000000 -23.000000 -1.772516 250 251 208
98.000000 -23.000000 -1.418013 250 252 209
99.000000 -23.000000 -1.063510 249 253 212
100.000000 -23.000000 0.354503 249 253 215
101.000000 -23.000000 3.545033 249 253 221
102.000000 -23.000000 5.672052 250 252 226
103.000000 -23.000000 6.381058 250 252 227
104.000000 -23.000000 8.153575 250 252 229
105.000000 -23.000000 12.053110 250 252 230
106.000000 -23.000000 27.296749 250 252 230
107.000000 -23.000000 29.423769 250 252 231
108.000000 -23.000000 29.423769 251 253 235
117.000000 -23.000000 135.420242 251 252 239
118.000000 -23.000000 135.774750 251 253 239
119.000000 -23.000000 135.420242 251 253 241
120.000000 -23.000000 135.420242 251 253 241
121.000000 -23.000000 135.420242 251 252 239
127.000000 -23.000000 136.838257 251 253 241
128.000000 -23.000000 136.838257 251 253 240
129.000000 -23.000000 137.192749 251 253 239
130.000000 -23.000000 138.610764 251 253 236
131.000000 -23.000000 140.028778 250 252 233
132.000000 -23.000000 139.674271 250 252 233
133.000000 -23.000000 139.674271 250 251 234
134.000000 -23.000000 136.838257 249 251 229
135.000000 -23.000000 136.129242 249 251 223
136.000000 -23.000000 136.129242 249 250 219
137.000000 -23.000000 136.483749 248 247 217
138.000000 -23.000000 137.192749 247 245 211
139.000000 -23.000000 137.547256 245 242 205
140.000000 -23.000000 137.547256 238 235 200
141.000000 -23.000000 137.547256 178 175 159
142.000000 -23.000000 137.547256 98 102 109
143.000000 -23.000000 139.674271 88 97 113
144.000000 -23.000000 141.092285 82 93 110
145.000000 -23.000000 142.510300 72 82 95
146.000000 -23.000000 146.409836 66 73 81
147.000000 -23.000000 147.473343 67 68 73
148.000000 -23.000000 147.827850 82 79 79
149.000000 -23.000000 148.536865 115 112 108
150.000000 -23.000000 149.600372 105 102 98
151.000000 -23.000000 149.600372 70 69 69
152.000000 -23.000000 149.954880 41 49 57
153.000000 -23.000000 151.018387 32 46 59
154.000000 -23.000000 152.081894 32 48 62
155.000000 -23.000000 152.081894 36 51 69
156.000000 -23.000000 153.499908 37 52 70
157.000000 -23.000000 155.272415 36 52 70
158.000000 -23.000000 155.272415 37 51 69
63.000000 -24.000000 11.698607 237 206 151
64.000000 -24.000000 13.825626 239 208 153
65.000000 -24.000000 17.016155 241 211 154
66.000000 -24.000000 22.333704 242 213 155
67.000000 -24.000000 24.106220 244 215 157
68.000000 -24.000000 24.460724 245 216 155
69.000000 -24.000000 23.751717 246 217 157
70.000000 -24.000000 23.042711 248 218 160
71.000000 -24.000000 22.688208 248 219 158
72.000000 -24.000000 21.979200 250 221 158
73.000000 -24.000000 26.587744 251 222 160
74.000000 -24.000000 27.296749 253 224 161
75.000000 -24.000000 27.651253 253 224 161
76.000000 -24.000000 27.296749 254 225 162
77.000000 -24.000000 26.587744 255 226 165
78.000000 -24.000000 23.397215 254 226 168
79.000000 -24.000000 22.688208 254 229 171
80.000000 -24.000000 -5.672052 255 230 172
81.000000 -24.000000 -5.672052 254 231 171
82.000000 -24.000000 -5.672052 254 233 171
83.000000 -24.000000 0.000000 255 234 175
84.000000 -24.000000 5.672052 255 236 179
85.000000 -24.000000 7.090065 255 237 182
86.000000 -24.000000 8.153575 255 239 183
87.000000 -24.000000 10.280594 255 240 183
88.000000 -24.000000 11.344104 255 242 186
89.000000 -24.000000 13.116620 255 244 188
90.000000 -24.000000 15.598143 254 245 190
91.000000 -24.000000 17.016155 254 245 192
92.000000 -24.000000 25.878736 254 246 193
93.000000 -24.000000 29.423769 252 247 194
94.000000 -24.000000 33.323303 253 248 195
95.000000 -24.000000 33.677807 253 248 198
96.000000 -24.000000 -0.709006 252 248 200
97.000000 -24.000000 -5.672052 251 249 203
98.000000 -24.000000 -1.772516 251 250 205
99.000000 -24.000000 -1.063510 250 251 207
100.000000 -24.000000 0.000000 250 253 209
101.000000 -24.000000 2.127019 250 253 213
102.000000 -24.000000 4.254039 249 253 214
103.000000 -24.000000 5.672052 249 252 212
117.000000 -24.000000 135.774750 250 252 231
118.000000 -24.000000 135.774750 250 253 227
119.000000 -24.000000 135.774750 250 253 229
120.000000 -24.000000 135.774750 250 252 231
121.000000 -24.000000 135.420242 250 253 227
122.000000 -24.000000 135.420242 250 252 229
126.000000 -24.000000 136.483749 252 253 240
127.000000 -24.000000 136.838257 251 252 237
128.000000 -24.000000 136.838257 250 252 233
129.000000 -24.000000 136.838257 250 252 231
130.000000 -24.000000 137.547256 250 252 230
131.000000 -24.000000 138.610764 250 252 229
132.000000 -24.000000 138.610764 250 252 227
133.000000 -24.000000 137.547256 250 251 225
134.000000 -24.000000 136.838257 250 250 222
135.000000 -24.000000 136.129242 250 249 219
136.000000 -24.000000 136.129242 249 246 216
137.000000 -24.000000 136.483749 249 245 212
138.000000 -24.000000 137.192749 248 244 208
139.000000 -24.000000 137.192749 245 241 204
140.000000 -24.000000 137.192749 238 233 198
141.000000 -24.000000 137.547256 176 173 156
142.000000 -24.000000 137.547256 98 102 109
143.000000 -24.000000 139.674271 90 97 113
144.000000 -24.000000 141.092285 83 91 107
145.000000 -24.000000 142.510300 71 80 92
146.000000 -24.000000 146.409836 67 73 81
147.000000 -24.000000 147.473343 69 68 73
148.000000 -24.000000 148.182358 83 80 79
149.000000 -24.000000 148.891357 115 112 107
150.000000 -24.000000 149.600372 104 100 97
151.000000 -24.000000 149.600372 68 69 69
152.000000 -24.000000 150.309372 40 50 58
153.000000 -24.000000 151.018387 32 47 56
154.000000 -24.000000 151.727386 33 47 58
155.000000 -24.000000 152.081894 36 49 64
156.000000 -24.000000 152.436401 36 51 67
157.000000 -24.000000 153.854401 36 50 68
158.000000 -24.000000 152.436401 37 48 64
63.000000 -25.000000 12.762116 238 206 152
64.000000 -25.000000 15.598143 239 207 151
65.000000 -25.000000 18.434168 240 210 153
66.000000 -25.000000 22.333704 242 212 155
67.000000 -25.000000 24.106220 244 215 156
68.000000 -25.000000 24.460724 245 216 156
69.000000 -25.000000 24.106220 246 216 159
70.000000 -25.000000 23.751717 249 217 161
71.000000 -25.000000 24.106220 249 217 160
72.000000 -25.000000 26.587744 250 218 159
73.000000 -25.000000 28.005756 251 220 160
74.000000 -25.000000 28.360260 252 221 160
75.000000 -25.000000 28.360260 252 223 159
76.000000 -25.000000 28.005756 252 224 159
77.000000 -25.000000 27.651253 251 223 162
78.000000 -25.000000 25.169731 246 219 163
79.000000 -25.000000 -5.672052 243 217 163
80.000000 -25.000000 -5.672052 248 223 166
81.000000 -25.000000 -5.672052 253 229 169
82.000000 -25.000000 0.000000 255 231 168
83.000000 -25.000000 8.153575 255 233 170
84.000000 -25.000000 8.153575 255 235 172
85.000000 -25.000000 8.862581 255 235 176
86.000000 -25.000000 9.926091 255 237 180
87.000000 -25.000000 10.989600 255 238 184
88.000000 -25.000000 11.698607 255 240 186
89.000000 -25.000000 13.116620 255 242 186
90.000000 -25.000000 15.598143 255 243 188
91.000000 -25.000000 16.661652 255 243 190
92.000000 -25.000000 26.587744 255 243 193
93.000000 -25.000000 28.714764 254 244 192
94.000000 -25.000000 32.259796 254 245 190
95.000000 -25.000000 33.323303 254 246 193
96.000000 -25.000000 -0.709006 254 247 195
117.000000 -25.000000 135.774750 249 251 219
118.000000 -25.000000 136.129242 248 250 214
119.000000 -25.000000 136.129242 249 250 217
120.000000 -25.000000 136.129242 249 252 220
121.000000 -25.000000 136.129242 249 253 219
122.000000 -25.000000 136.129242 249 253 221
123.000000 -25.000000 136.129242 250 252 226
124.000000 -25.000000 136.129242 250 252 228
125.000000 -25.000000 136.129242 250 252 230
126.000000 -25.000000 136.483749 250 252 229
127.000000 -25.000000 136.483749 250 252 227
128.000000 -25.000000 136.838257 250 252 225
129.000000 -25.000000 136.838257 249 252 223
130.000000 -25.000000 136.838257 250 252 222
131.000000 -25.000000 137.547256 249 251 222
132.000000 -25.000000 137.547256 250 251 219
133.000000 -25.000000 137.192749 250 250 219
134.000000 -25.000000 136.838257 251 249 217
135.000000 -25.000000 136.129242 251 246 215
136.000000 -25.000000 136.129242 250 244 213
137.000000 -25.000000 136.483749 249 242 209
138.000000 -25.000000 136.838257 247 241 207
139.000000 -25.000000 137.192749 243 238 206
140.000000 -25.000000 137.192749 235 230 199
141.000000 -25.000000 137.192749 172 170 154
142.000000 -25.000000 137.192749 96 104 109
143.000000 -25.000000 139.319778 90 98 112
144.000000 -25.000000 141.092285 82 90 102
145.000000 -25.000000 142.510300 72 79 89
146.000000 -25.000000 146.409836 67 73 80
147.000000 -25.000000 147.473343 69 69 71
148.000000 -25.000000 148.182358 83 82 78
149.000000 -25.000000 148.891357 115 112 108
150.000000 -25.000000 149.600372 103 99 95
151.000000 -25.000000 149.600372 64 66 67
152.000000 -25.000000 150.309372 36 45 54
153.000000 -25.000000 150.309372 31 41 51
154.000000 -25.000000 151.018387 30 39 50
155.000000 -25.000000 151.372879 29 38 49
156.000000 -25.000000 151.372879 28 38 50
157.000000 -25.000000 151.372879 30 39 54
158.000000 -25.000000 149.245865 38 44 53
63.000000 -26.000000 14.889136 238 204 153
64.000000 -26.000000 17.016155 239 206 152
65.000000 -26.000000 19.143175 239 208 153
66.000000 -26.000000 21.979200 241 211 155
67.000000 -26.000000 22.688208 243 214 155
68.000000 -26.000000 24.106220 244 215 156
69.000000 -26.000000 24.106220 246 215 158
70.000000 -26.000000 24.460724 247 216 160
71.000000 -26.000000 26.587744 248 217 161
72.000000 -26.000000 28.005756 249 218 162
73.000000 -26.000000 28.714764 250 219 161
74.000000 -26.000000 28.714764 251 219 161
75.000000 -26.000000 28.714764 251 222 159
76.000000 -26.000000 28.360260 249 222 158
77.000000 -26.000000 28.360260 226 202 149
78.000000 -26.000000 28.005756 178 161 128
79.000000 -26.000000 -5.672052 161 148 125
80.000000 -26.000000 -5.672052 188 175 146
81.000000 -26.000000 12.053110 232 212 166
82.000000 -26.000000 12.053110 252 228 173
83.000000 -26.000000 11.344104 254 232 170
84.000000 -26.000000 9.926091 255 234 169
85.000000 -26.000000 9.217084 254 234 174
86.000000 -26.000000 9.926091 255 235 180
87.000000 -26.000000 10.989600 255 237 185
88.000000 -26.000000 11.698607 255 238 186
89.000000 -26.000000 13.116620 255 239 186
90.000000 -26.000000 15.598143 255 240 187
91.000000 -26.000000 18.079666 255 240 188
92.000000 -26.000000 26.587744 255 241 192
93.000000 -26.000000 28.360260 255 242 189
94.000000 -26.000000 32.259796 255 243 188
95.000000 -26.000000 32.614300 255 244 192
96.000000 -26.000000 -0.709006 255 245 193
116.000000 -26.000000 134.711227 248 248 208
117.000000 -26.000000 135.774750 246 236 181
118.000000 -26.000000 135.774750 245 233 171
119.000000 -26.000000 136.129242 245 235 177
120.000000 -26.000000 135.774750 246 241 186
121.000000 -26.000000 136.129242 248 250 206
122.000000 -26.000000 136.129242 250 252 216
123.000000 -26.000000 136.129242 250 252 219
124.000000 -26.000000 136.129242 250 252 223
125.000000 -26.000000 136.129242 250 252 222
126.000000 -26.000000 136.129242 250 251 218
127.000000 -26.000000 136.483749 250 251 215
128.000000 -26.000000 136.483749 250 251 216
129.000000 -26.000000 136.483749 250 250 216
130.000000 -26.000000 136.838257 250 250 215
131.000000 -26.000000 136.838257 250 250 214
132.000000 -26.000000 136.838257 250 250 212
133.000000 -26.000000 136.838257 250 249 213
134.000000 -26.000000 136.483749 250 246 213
135.000000 -26.000000 136.129242 250 244 210
136.000000 -26.000000 136.129242 249 242 207
137.000000 -26.000000 136.483749 249 240 204
138.000000 -26.000000 136.838257 245 238 204
139.000000 -26.000000 136.838257 242 236 206
140.000000 -26.000000 137.192749 234 228 199
141.000000 -26.000000 137.192749 168 167 150
142.000000 -26.000000 137.192749 97 105 110
