ply
		format ascii 1.0
		element vertex 8483
		property float x
		property float y
		property float z
		property uchar red
		property uchar green
		property uchar blue
		end_header
138.000000 -48.000000 -5.672052 65 22 23
139.000000 -48.000000 -5.672052 63 21 22
140.000000 -48.000000 -5.672052 59 20 19
141.000000 -48.000000 -5.672052 55 18 14
142.000000 -48.000000 -5.672052 49 16 10
143.000000 -48.000000 -5.672052 45 14 9
144.000000 -48.000000 -5.672052 42 13 9
145.000000 -48.000000 -5.672052 38 12 8
146.000000 -48.000000 -5.672052 33 13 8
147.000000 -48.000000 0.000000 26 18 16
148.000000 -48.000000 10.635098 18 17 17
149.000000 -48.000000 10.635098 15 15 15
150.000000 -48.000000 10.280594 16 17 17
151.000000 -48.000000 -5.672052 16 18 17
152.000000 -48.000000 -5.672052 15 16 16
153.000000 -48.000000 -5.672052 14 15 14
154.000000 -48.000000 -1.063510 14 15 11
155.000000 -48.000000 -1.063510 17 16 11
156.000000 -48.000000 0.709006 25 19 13
157.000000 -48.000000 1.063510 30 22 13
158.000000 -48.000000 0.354503 26 19 11
63.000000 -49.000000 84.017265 41 40 43
64.000000 -49.000000 84.017265 53 52 57
65.000000 -49.000000 83.662766 59 59 66
66.000000 -49.000000 83.308266 59 60 69
67.000000 -49.000000 82.953758 59 57 64
68.000000 -49.000000 81.535744 69 48 48
69.000000 -49.000000 79.763229 96 37 32
70.000000 -49.000000 79.054222 106 36 31
71.000000 -49.000000 78.699722 107 36 31
72.000000 -49.000000 78.699722 108 37 30
73.000000 -49.000000 77.990715 109 37 32
74.000000 -49.000000 77.281708 110 37 32
75.000000 -49.000000 74.091179 110 38 31
76.000000 -49.000000 74.091179 110 40 32
77.000000 -49.000000 74.091179 111 39 33
78.000000 -49.000000 76.218201 111 40 34
79.000000 -49.000000 78.345215 113 40 33
80.000000 -49.000000 78.699722 115 40 34
81.000000 -49.000000 79.763229 116 40 37
82.000000 -49.000000 80.826736 117 41 41
83.000000 -49.000000 82.953758 117 41 40
84.000000 -49.000000 81.181244 116 41 36
85.000000 -49.000000 80.117737 119 42 36
86.000000 -49.000000 79.763229 119 41 36
87.000000 -49.000000 79.408730 120 42 36
88.000000 -49.000000 78.345215 121 42 37
89.000000 -49.000000 77.281708 121 42 37
90.000000 -49.000000 68.419128 122 43 38
91.000000 -49.000000 68.064621 122 44 39
92.000000 -49.000000 67.710121 123 44 41
93.000000 -49.000000 66.646606 121 43 43
94.000000 -49.000000 66.646606 121 43 43
95.000000 -49.000000 66.646606 121 44 43
96.000000 -49.000000 67.355614 121 44 42
97.000000 -49.000000 68.064621 120 44 40
98.000000 -49.000000 77.281708 119 43 39
99.000000 -49.000000 77.636208 121 43 39
100.000000 -49.000000 77.990715 122 43 41
101.000000 -49.000000 78.699722 121 43 46
102.000000 -49.000000 79.054222 120 44 46
103.000000 -49.000000 79.763229 120 44 45
104.000000 -49.000000 80.117737 120 45 44
105.000000 -49.000000 85.080780 121 45 46
106.000000 -49.000000 85.789787 120 44 45
107.000000 -49.000000 81.535744 116 42 41
108.000000 -49.000000 74.800186 114 41 37
109.000000 -49.000000 74.091179 112 41 39
110.000000 -49.000000 72.673164 111 41 41
111.000000 -49.000000 40.058868 109 41 38
112.000000 -49.000000 40.767872 106 40 34
113.000000 -49.000000 43.249397 103 39 35
114.000000 -49.000000 45.021912 102 38 36
115.000000 -49.000000 46.794430 101 38 34
116.000000 -49.000000 60.265553 98 36 32
117.000000 -49.000000 62.392570 95 36 34
118.000000 -49.000000 66.646606 92 35 34
119.000000 -49.000000 68.064621 90 34 34
120.000000 -49.000000 68.064621 89 32 31
121.000000 -49.000000 33.677807 91 31 29
122.000000 -49.000000 33.677807 90 31 30
123.000000 -49.000000 34.032310 90 32 32
124.000000 -49.000000 34.386814 88 33 31
125.000000 -49.000000 35.095821 83 32 29
126.000000 -49.000000 36.159332 82 31 30
127.000000 -49.000000 38.640854 85 31 33
128.000000 -49.000000 56.720520 85 32 33
129.000000 -49.000000 58.847538 83 32 32
130.000000 -49.000000 60.265553 81 30 30
131.000000 -49.000000 60.265553 79 29 29
132.000000 -49.000000 11.344104 79 29 28
133.000000 -49.000000 10.635098 80 29 29
134.000000 -49.000000 11.344104 77 28 31
135.000000 -49.000000 67.355614 74 28 30
136.000000 -49.000000 11.344104 71 25 27
137.000000 -49.000000 10.635098 69 23 23
138.000000 -49.000000 -5.672052 65 22 20
139.000000 -49.000000 -5.672052 62 21 18
140.000000 -49.000000 -5.672052 60 20 17
141.000000 -49.000000 -5.672052 55 18 14
142.000000 -49.000000 -5.672052 50 16 10
143.000000 -49.000000 -5.672052 46 13 9
144.000000 -49.000000 -5.672052 43 12 10
145.000000 -49.000000 -5.672052 40 12 10
146.000000 -49.000000 -5.672052 34 13 9
147.000000 -49.000000 -5.672052 26 17 15
148.000000 -49.000000 10.635098 18 16 16
149.000000 -49.000000 10.989600 14 14 14
150.000000 -49.000000 10.989600 15 16 16
151.000000 -49.000000 10.989600 15 17 17
152.000000 -49.000000 11.698607 14 16 17
153.000000 -49.000000 11.698607 13 15 14
154.000000 -49.000000 -1.063510 16 15 12
155.000000 -49.000000 -1.063510 21 16 13
156.000000 -49.000000 2.127019 26 19 13
157.000000 -49.000000 2.127019 29 22 10
158.000000 -49.000000 1.063510 26 19 8
63.000000 -50.000000 83.662766 46 45 49
64.000000 -50.000000 83.662766 59 58 64
65.000000 -50.000000 83.662766 65 66 72
66.000000 -50.000000 83.308266 66 68 76
67.000000 -50.000000 81.890251 65 65 72
68.000000 -50.000000 80.117737 72 52 54
69.000000 -50.000000 79.408730 96 37 35
70.000000 -50.000000 79.054222 107 36 33
71.000000 -50.000000 79.054222 108 38 33
72.000000 -50.000000 79.054222 109 38 35
73.000000 -50.000000 79.054222 109 38 36
74.000000 -50.000000 78.345215 110 39 34
75.000000 -50.000000 77.990715 110 39 33
76.000000 -50.000000 76.218201 110 39 33
77.000000 -50.000000 76.218201 111 39 35
78.000000 -50.000000 76.572701 114 40 37
79.000000 -50.000000 78.699722 115 40 37
80.000000 -50.000000 79.408730 115 40 36
81.000000 -50.000000 80.117737 117 40 37
82.000000 -50.000000 83.308266 118 40 38
83.000000 -50.000000 83.308266 118 40 39
84.000000 -50.000000 82.953758 119 41 37
85.000000 -50.000000 80.826736 120 42 37
86.000000 -50.000000 79.763229 120 42 37
87.000000 -50.000000 78.699722 119 42 36
88.000000 -50.000000 77.990715 119 42 36
89.000000 -50.000000 77.636208 121 42 37
90.000000 -50.000000 70.191643 122 43 38
91.000000 -50.000000 68.419128 122 44 41
92.000000 -50.000000 67.355614 122 44 44
93.000000 -50.000000 67.001114 120 44 43
94.000000 -50.000000 67.355614 121 45 43
95.000000 -50.000000 67.710121 123 45 42
96.000000 -50.000000 68.064621 123 44 40
97.000000 -50.000000 73.027672 122 44 40
98.000000 -50.000000 77.636208 121 44 40
99.000000 -50.000000 77.990715 121 43 39
100.000000 -50.000000 77.990715 121 43 40
101.000000 -50.000000 78.699722 121 44 45
102.000000 -50.000000 79.763229 120 44 45
103.000000 -50.000000 80.472237 121 43 43
104.000000 -50.000000 82.953758 121 44 42
105.000000 -50.000000 85.080780 120 44 42
106.000000 -50.000000 85.789787 118 43 41
107.000000 -50.000000 81.535744 116 42 37
108.000000 -50.000000 79.408730 113 41 36
109.000000 -50.000000 74.091179 112 40 37
110.000000 -50.000000 73.382172 111 41 38
111.000000 -50.000000 39.704365 108 40 36
112.000000 -50.000000 39.704365 106 39 34
113.000000 -50.000000 41.122375 103 39 35
114.000000 -50.000000 43.249397 102 38 38
115.000000 -50.000000 45.021912 100 37 38
116.000000 -50.000000 60.265553 98 36 37
117.000000 -50.000000 63.810585 96 36 35
118.000000 -50.000000 66.646606 93 35 33
119.000000 -50.000000 67.355614 90 34 32
120.000000 -50.000000 -5.672052 89 33 30
121.000000 -50.000000 -5.672052 90 32 29
122.000000 -50.000000 -5.672052 89 31 30
123.000000 -50.000000 34.032310 89 32 31
124.000000 -50.000000 34.741318 88 32 31
125.000000 -50.000000 35.450325 84 32 29
126.000000 -50.000000 37.577343 83 31 27
127.000000 -50.000000 38.995358 85 30 26
128.000000 -50.000000 62.392570 84 31 28
129.000000 -50.000000 62.392570 83 31 29
130.000000 -50.000000 62.038067 82 31 28
131.000000 -50.000000 61.329060 81 30 28
132.000000 -50.000000 11.344104 81 30 29
133.000000 -50.000000 11.344104 80 29 28
134.000000 -50.000000 10.635098 77 28 26
135.000000 -50.000000 10.635098 74 28 27
136.000000 -50.000000 11.344104 72 26 27
137.000000 -50.000000 11.344104 70 24 25
138.000000 -50.000000 11.344104 65 22 21
139.000000 -50.000000 -5.672052 62 21 19
140.000000 -50.000000 -5.672052 59 20 17
141.000000 -50.000000 -5.672052 56 18 14
142.000000 -50.000000 -5.672052 51 15 10
143.000000 -50.000000 -5.672052 46 13 11
144.000000 -50.000000 -5.672052 42 12 14
145.000000 -50.000000 -5.672052 40 11 13
146.000000 -50.000000 -5.672052 34 11 12
147.000000 -50.000000 -5.672052 24 15 13
148.000000 -50.000000 10.989600 14 13 13
149.000000 -50.000000 11.344104 13 13 13
150.000000 -50.000000 11.344104 14 15 15
151.000000 -50.000000 11.344104 15 16 16
152.000000 -50.000000 12.053110 14 14 17
153.000000 -50.000000 13.116620 13 14 14
154.000000 -50.000000 12.053110 15 15 11
155.000000 -50.000000 1.063510 22 16 12
156.000000 -50.000000 1.063510 26 20 11
157.000000 -50.000000 2.127019 29 22 9
158.000000 -50.000000 1.063510 28 19 6
63.000000 -51.000000 83.662766 48 48 51
64.000000 -51.000000 83.662766 58 57 63
65.000000 -51.000000 83.308266 63 63 70
66.000000 -51.000000 83.308266 64 64 72
67.000000 -51.000000 80.826736 63 62 69
68.000000 -51.000000 79.763229 70 51 55
69.000000 -51.000000 79.408730 96 38 34
70.000000 -51.000000 79.054222 106 37 31
71.000000 -51.000000 79.408730 108 38 32
72.000000 -51.000000 79.763229 109 38 35
73.000000 -51.000000 79.763229 110 38 38
74.000000 -51.000000 79.054222 111 39 37
75.000000 -51.000000 78.345215 111 39 37
76.000000 -51.000000 76.927200 111 40 38
77.000000 -51.000000 76.572701 113 40 38
78.000000 -51.000000 76.572701 116 41 40
79.000000 -51.000000 78.699722 115 41 40
80.000000 -51.000000 79.408730 115 41 39
81.000000 -51.000000 83.308266 117 41 38
82.000000 -51.000000 83.308266 118 40 36
83.000000 -51.000000 83.308266 118 41 37
84.000000 -51.000000 82.953758 119 42 38
85.000000 -51.000000 81.535744 120 41 39
86.000000 -51.000000 79.408730 121 42 37
87.000000 -51.000000 78.699722 120 42 34
88.000000 -51.000000 77.636208 120 42 36
89.000000 -51.000000 77.281708 121 42 37
90.000000 -51.000000 70.191643 122 43 39
91.000000 -51.000000 68.419128 122 44 42
92.000000 -51.000000 67.001114 121 44 42
93.000000 -51.000000 67.001114 121 44 40
94.000000 -51.000000 67.355614 121 44 40
95.000000 -51.000000 68.064621 123 45 41
96.000000 -51.000000 69.837135 123 44 40
97.000000 -51.000000 73.736671 124 45 41
98.000000 -51.000000 77.636208 123 44 40
99.000000 -51.000000 77.636208 122 43 39
100.000000 -51.000000 77.990715 122 43 40
101.000000 -51.000000 78.699722 121 43 44
102.000000 -51.000000 79.763229 120 43 44
103.000000 -51.000000 82.953758 119 43 40
104.000000 -51.000000 85.080780 118 43 38
105.000000 -51.000000 86.498795 118 43 37
106.000000 -51.000000 87.207802 118 43 39
107.000000 -51.000000 85.435280 116 42 37
108.000000 -51.000000 80.472237 114 41 35
109.000000 -51.000000 73.382172 112 41 36
110.000000 -51.000000 70.900650 111 41 39
111.000000 -51.000000 39.349861 109 40 37
112.000000 -51.000000 39.349861 106 40 35
113.000000 -51.000000 40.767872 103 39 38
114.000000 -51.000000 42.540390 101 37 38
115.000000 -51.000000 43.603901 99 36 37
116.000000 -51.000000 45.021912 97 36 35
117.000000 -51.000000 63.810585 96 36 32
118.000000 -51.000000 65.583099 93 35 31
119.000000 -51.000000 66.646606 90 34 32
120.000000 -51.000000 -5.672052 89 33 31
121.000000 -51.000000 -5.672052 89 33 31
122.000000 -51.000000 -5.672052 88 33 30
123.000000 -51.000000 34.032310 87 32 29
124.000000 -51.000000 35.450325 87 31 29
125.000000 -51.000000 37.577343 85 31 29
126.000000 -51.000000 38.640854 84 31 25
127.000000 -51.000000 84.017265 84 31 23
128.000000 -51.000000 84.017265 83 31 27
129.000000 -51.000000 67.001114 82 31 28
130.000000 -51.000000 66.292107 82 31 27
131.000000 -51.000000 61.329060 81 30 28
132.000000 -51.000000 10.635098 80 29 29
133.000000 -51.000000 10.635098 79 28 27
134.000000 -51.000000 10.635098 76 28 25
135.000000 -51.000000 10.635098 74 28 26
136.000000 -51.000000 11.344104 72 26 28
137.000000 -51.000000 12.407614 70 24 27
138.000000 -51.000000 15.598143 65 22 23
139.000000 -51.000000 -5.672052 61 21 19
140.000000 -51.000000 -5.672052 58 19 17
141.000000 -51.000000 -5.672052 55 17 14
142.000000 -51.000000 -5.672052 51 15 11
143.000000 -51.000000 -5.672052 46 14 12
144.000000 -51.000000 -5.672052 41 13 13
145.000000 -51.000000 -5.672052 38 11 12
146.000000 -51.000000 -5.672052 33 11 9
147.000000 -51.000000 -5.672052 22 13 10
148.000000 -51.000000 10.989600 13 12 9
149.000000 -51.000000 11.344104 12 12 10
150.000000 -51.000000 11.344104 13 14 13
151.000000 -51.000000 11.698607 14 15 15
152.000000 -51.000000 12.053110 14 14 15
153.000000 -51.000000 13.471124 13 14 12
154.000000 -51.000000 41.122375 14 15 10
155.000000 -51.000000 2.127019 18 15 10
156.000000 -51.000000 1.063510 25 18 12
157.000000 -51.000000 1.063510 29 22 13
158.000000 -51.000000 0.354503 27 19 10
64.000000 -52.000000 83.662766 57 56 61
65.000000 -52.000000 83.308266 62 61 68
66.000000 -52.000000 81.890251 62 61 69
67.000000 -52.000000 80.826736 59 58 65
68.000000 -52.000000 80.826736 68 49 53
69.000000 -52.000000 79.763229 96 39 34
70.000000 -52.000000 79.408730 106 38 31
71.000000 -52.000000 79.763229 109 40 33
72.000000 -52.000000 80.472237 111 41 36
73.000000 -52.000000 81.181244 112 42 39
74.000000 -52.000000 80.826736 113 43 40
75.000000 -52.000000 79.763229 114 44 41
76.000000 -52.000000 79.408730 115 45 42
77.000000 -52.000000 77.990715 116 44 40
78.000000 -52.000000 77.990715 117 45 41
79.000000 -52.000000 79.408730 117 45 44
80.000000 -52.000000 81.535744 116 44 45
81.000000 -52.000000 83.662766 116 44 43
82.000000 -52.000000 82.953758 116 43 41
83.000000 -52.000000 82.953758 117 42 40
84.000000 -52.000000 82.953758 117 42 38
85.000000 -52.000000 79.408730 119 41 38
86.000000 -52.000000 79.054222 120 41 38
87.000000 -52.000000 77.636208 120 41 36
88.000000 -52.000000 77.281708 121 42 38
89.000000 -52.000000 73.027672 122 42 42
90.000000 -52.000000 70.191643 122 42 42
91.000000 -52.000000 67.001114 122 43 40
92.000000 -52.000000 67.001114 122 42 41
93.000000 -52.000000 67.001114 121 43 40
94.000000 -52.000000 67.710121 121 44 40
95.000000 -52.000000 68.064621 123 44 40
96.000000 -52.000000 69.837135 123 44 40
97.000000 -52.000000 73.736671 123 44 39
98.000000 -52.000000 75.509193 122 43 39
99.000000 -52.000000 77.636208 122 43 40
100.000000 -52.000000 77.990715 122 43 42
101.000000 -52.000000 78.699722 121 42 44
102.000000 -52.000000 79.763229 121 42 44
103.000000 -52.000000 81.535744 119 43 39
104.000000 -52.000000 83.308266 118 43 36
105.000000 -52.000000 85.080780 119 42 35
106.000000 -52.000000 85.080780 119 42 36
107.000000 -52.000000 85.080780 117 42 36
108.000000 -52.000000 73.382172 115 41 35
109.000000 -52.000000 70.900650 112 40 38
110.000000 -52.000000 69.837135 111 40 40
111.000000 -52.000000 39.349861 108 40 39
112.000000 -52.000000 39.349861 106 39 35
113.000000 -52.000000 40.767872 102 38 34
114.000000 -52.000000 41.831383 100 37 35
115.000000 -52.000000 42.540390 100 36 33
116.000000 -52.000000 43.958401 98 35 31
117.000000 -52.000000 62.747074 95 35 30
118.000000 -52.000000 45.376415 93 34 31
119.000000 -52.000000 -5.672052 91 33 32
120.000000 -52.000000 -5.672052 90 33 32
121.000000 -52.000000 -5.672052 90 33 32
122.000000 -52.000000 64.874092 88 32 30
123.000000 -52.000000 66.292107 87 32 28
124.000000 -52.000000 64.519592 87 30 29
125.000000 -52.000000 64.519592 87 30 29
126.000000 -52.000000 68.064621 86 29 29
127.000000 -52.000000 84.017265 85 31 28
128.000000 -52.000000 84.017265 84 30 29
129.000000 -52.000000 67.355614 83 30 27
130.000000 -52.000000 67.001114 82 30 26
131.000000 -52.000000 66.292107 80 29 28
132.000000 -52.000000 10.635098 79 28 29
133.000000 -52.000000 10.635098 77 27 30
134.000000 -52.000000 10.635098 76 28 29
135.000000 -52.000000 10.989600 73 27 28
136.000000 -52.000000 11.344104 71 25 26
137.000000 -52.000000 15.598143 69 23 24
138.000000 -52.000000 16.661652 64 22 20
139.000000 -52.000000 16.661652 61 21 17
140.000000 -52.000000 -5.672052 58 19 15
141.000000 -52.000000 -5.672052 54 17 14
142.000000 -52.000000 -5.672052 50 15 13
143.000000 -52.000000 -5.672052 45 14 13
144.000000 -52.000000 -5.672052 40 12 12
145.000000 -52.000000 -5.672052 37 11 9
146.000000 -52.000000 -5.672052 32 10 7
147.000000 -52.000000 -5.672052 21 12 8
148.000000 -52.000000 -5.672052 12 11 7
149.000000 -52.000000 11.344104 10 11 7
150.000000 -52.000000 11.698607 11 11 10
151.000000 -52.000000 12.407614 11 11 11
152.000000 -52.000000 12.762116 11 12 11
153.000000 -52.000000 14.534633 11 12 11
154.000000 -52.000000 96.424881 12 13 9
155.000000 -52.000000 96.779388 15 13 8
156.000000 -52.000000 1.063510 23 17 11
157.000000 -52.000000 0.354503 28 21 13
158.000000 -52.000000 0.000000 27 19 13
64.000000 -53.000000 84.371773 56 56 58
65.000000 -53.000000 83.662766 61 61 65
66.000000 -53.000000 81.890251 61 60 64
67.000000 -53.000000 81.535744 59 57 62
68.000000 -53.000000 81.181244 74 56 60
69.000000 -53.000000 80.826736 106 57 55
70.000000 -53.000000 80.472237 123 63 63
71.000000 -53.000000 81.181244 133 74 78
72.000000 -53.000000 124.785141 139 85 89
73.000000 -53.000000 124.785141 142 92 97
74.000000 -53.000000 125.139648 146 97 104
75.000000 -53.000000 124.785141 151 104 111
76.000000 -53.000000 124.076134 156 111 114
77.000000 -53.000000 124.076134 151 106 113
78.000000 -53.000000 123.012627 147 102 113
79.000000 -53.000000 123.012627 145 100 112
80.000000 -53.000000 123.012627 143 95 106
81.000000 -53.000000 87.562302 140 88 95
82.000000 -53.000000 87.207802 130 73 80
83.000000 -53.000000 85.080780 124 58 61
84.000000 -53.000000 83.308266 120 45 43
85.000000 -53.000000 75.154686 119 41 39
86.000000 -53.000000 75.154686 119 41 40
87.000000 -53.000000 75.154686 120 41 38
88.000000 -53.000000 73.736671 121 42 38
89.000000 -53.000000 71.609657 122 42 41
90.000000 -53.000000 67.001114 121 42 40
91.000000 -53.000000 66.292107 122 42 39
92.000000 -53.000000 66.646606 121 42 40
93.000000 -53.000000 67.001114 121 42 39
94.000000 -53.000000 67.710121 122 44 40
95.000000 -53.000000 69.482635 122 44 39
96.000000 -53.000000 69.837135 122 44 38
97.000000 -53.000000 73.027672 121 42 39
98.000000 -53.000000 74.091179 121 42 39
99.000000 -53.000000 76.218201 122 42 42
100.000000 -53.000000 77.636208 121 41 44
101.000000 -53.000000 79.054222 121 42 45
102.000000 -53.000000 79.763229 119 43 44
103.000000 -53.000000 80.472237 118 44 39
104.000000 -53.000000 81.890251 118 42 37
105.000000 -53.000000 85.080780 118 42 39
106.000000 -53.000000 85.080780 119 42 41
107.000000 -53.000000 85.080780 117 41 37
108.000000 -53.000000 69.128136 114 40 33
109.000000 -53.000000 69.482635 110 40 35
110.000000 -53.000000 69.482635 109 40 36
111.000000 -53.000000 34.741318 107 39 38
112.000000 -53.000000 34.741318 105 39 36
113.000000 -53.000000 38.640854 102 38 36
114.000000 -53.000000 40.767872 101 36 36
115.000000 -53.000000 42.540390 99 36 34
116.000000 -53.000000 61.683563 97 35 31
117.000000 -53.000000 62.392570 94 34 30
118.000000 -53.000000 45.376415 93 33 33
119.000000 -53.000000 -5.672052 91 33 33
120.000000 -53.000000 -5.672052 90 33 30
121.000000 -53.000000 63.101578 90 32 31
122.000000 -53.000000 64.874092 89 31 30
123.000000 -53.000000 66.292107 87 31 28
124.000000 -53.000000 64.165085 87 31 29
125.000000 -53.000000 64.519592 87 29 29
126.000000 -53.000000 68.064621 86 29 29
127.000000 -53.000000 72.673164 85 29 28
128.000000 -53.000000 72.673164 85 29 30
129.000000 -53.000000 67.001114 84 29 29
130.000000 -53.000000 67.001114 82 29 27
131.000000 -53.000000 66.646606 80 29 26
132.000000 -53.000000 10.635098 78 28 27
133.000000 -53.000000 10.635098 77 27 28
134.000000 -53.000000 8.153575 75 27 28
135.000000 -53.000000 4.254039 73 27 27
136.000000 -53.000000 10.989600 71 25 25
137.000000 -53.000000 15.952646 69 23 22
138.000000 -53.000000 62.747074 65 21 20
139.000000 -53.000000 62.747074 62 21 18
140.000000 -53.000000 -5.672052 58 19 16
141.000000 -53.000000 -5.672052 54 16 15
142.000000 -53.000000 -5.672052 49 15 16
143.000000 -53.000000 -5.672052 44 14 17
144.000000 -53.000000 -5.672052 39 12 13
145.000000 -53.000000 -5.672052 36 10 9
146.000000 -53.000000 -5.672052 30 10 8
147.000000 -53.000000 -5.672052 17 10 6
148.000000 -53.000000 -5.672052 9 8 5
149.000000 -53.000000 -5.672052 7 7 5
150.000000 -53.000000 11.698607 6 6 6
151.000000 -53.000000 11.698607 6 6 6
152.000000 -53.000000 12.762116 5 7 6
153.000000 -53.000000 92.170845 7 8 7
154.000000 -53.000000 96.424881 9 10 7
155.000000 -53.000000 97.133888 13 12 6
156.000000 -53.000000 97.133888 22 16 8
157.000000 -53.000000 0.000000 28 20 9
158.000000 -53.000000 0.000000 27 19 11
64.000000 -54.000000 121.594612 56 56 56
65.000000 -54.000000 123.367126 59 59 60
66.000000 -54.000000 123.367126 58 58 60
67.000000 -54.000000 124.076134 61 60 64
68.000000 -54.000000 124.076134 96 89 93
69.000000 -54.000000 124.076134 139 120 126
70.000000 -54.000000 124.430641 159 138 152
71.000000 -54.000000 124.785141 174 156 176
72.000000 -54.000000 124.785141 185 171 199
73.000000 -54.000000 125.139648 188 178 213
74.000000 -54.000000 125.139648 188 183 220
75.000000 -54.000000 125.139648 199 196 227
76.000000 -54.000000 124.785141 215 211 229
77.000000 -54.000000 124.430641 198 198 228
78.000000 -54.000000 124.076134 186 188 228
79.000000 -54.000000 124.076134 184 186 226
80.000000 -54.000000 124.076134 186 186 219
81.000000 -54.000000 124.785141 184 178 205
82.000000 -54.000000 124.785141 159 147 176
83.000000 -54.000000 125.139648 135 109 122
84.000000 -54.000000 76.218201 116 61 60
85.000000 -54.000000 75.154686 115 42 39
86.000000 -54.000000 75.154686 115 41 38
87.000000 -54.000000 74.091179 117 42 37
88.000000 -54.000000 73.382172 119 41 36
89.000000 -54.000000 70.546143 120 42 37
90.000000 -54.000000 68.064621 121 42 39
91.000000 -54.000000 66.646606 122 43 39
92.000000 -54.000000 66.646606 122 43 39
93.000000 -54.000000 67.710121 122 43 39
94.000000 -54.000000 69.482635 122 44 41
95.000000 -54.000000 69.837135 121 44 39
96.000000 -54.000000 72.673164 120 44 37
97.000000 -54.000000 73.027672 119 42 41
98.000000 -54.000000 74.091179 120 41 43
99.000000 -54.000000 75.509193 120 41 42
100.000000 -54.000000 77.281708 120 41 41
101.000000 -54.000000 79.054222 121 43 43
102.000000 -54.000000 79.763229 119 44 43
103.000000 -54.000000 80.117737 119 45 41
104.000000 -54.000000 80.826736 118 44 39
105.000000 -54.000000 81.890251 116 42 40
106.000000 -54.000000 81.890251 115 41 42
107.000000 -54.000000 69.482635 115 41 39
108.000000 -54.000000 69.128136 111 40 34
109.000000 -54.000000 69.128136 108 40 33
110.000000 -54.000000 69.128136 107 40 33
111.000000 -54.000000 34.741318 105 39 35
112.000000 -54.000000 34.741318 103 38 35
113.000000 -54.000000 34.741318 102 38 37
114.000000 -54.000000 39.704365 100 37 36
115.000000 -54.000000 61.683563 97 35 36
116.000000 -54.000000 62.392570 95 34 34
117.000000 -54.000000 62.747074 93 33 31
118.000000 -54.000000 62.747074 92 33 33
119.000000 -54.000000 63.101578 90 34 34
120.000000 -54.000000 62.747074 90 33 31
121.000000 -54.000000 63.101578 89 32 30
122.000000 -54.000000 63.101578 89 31 30
123.000000 -54.000000 63.101578 87 31 30
124.000000 -54.000000 63.456081 86 30 29
125.000000 -54.000000 64.165085 84 30 29
126.000000 -54.000000 68.064621 83 30 28
127.000000 -54.000000 69.128136 82 29 27
128.000000 -54.000000 72.673164 83 28 27
129.000000 -54.000000 67.710121 83 28 27
130.000000 -54.000000 66.646606 83 29 26
131.000000 -54.000000 10.635098 80 29 25
132.000000 -54.000000 10.635098 78 28 25
133.000000 -54.000000 10.635098 77 27 24
134.000000 -54.000000 11.344104 75 26 24
135.000000 -54.000000 4.254039 73 27 26
136.000000 -54.000000 10.989600 70 24 25
137.000000 -54.000000 15.952646 68 23 22
138.000000 -54.000000 62.747074 66 22 21
139.000000 -54.000000 -5.672052 62 20 19
140.000000 -54.000000 -5.672052 59 19 18
141.000000 -54.000000 -5.672052 54 16 17
142.000000 -54.000000 -5.672052 48 14 16
143.000000 -54.000000 -5.672052 43 13 15
144.000000 -54.000000 62.392570 38 11 11
145.000000 -54.000000 64.165085 36 10 9
146.000000 -54.000000 66.646606 30 9 7
147.000000 -54.000000 -5.672052 15 8 5
148.000000 -54.000000 -5.672052 7 6 5
149.000000 -54.000000 -5.672052 6 6 6
150.000000 -54.000000 11.698607 4 4 4
151.000000 -54.000000 11.698607 4 4 4
152.000000 -54.000000 86.144287 4 4 4
153.000000 -54.000000 92.170845 6 7 5
154.000000 -54.000000 96.424881 9 9 5
155.000000 -54.000000 97.133888 13 12 7
156.000000 -54.000000 97.488396 23 16 9
157.000000 -54.000000 97.133888 28 19 10
158.000000 -54.000000 0.000000 26 18 8
63.000000 -55.000000 120.885605 53 51 49
64.000000 -55.000000 122.658119 59 57 56
65.000000 -55.000000 123.367126 61 59 60
66.000000 -55.000000 124.076134 59 59 61
67.000000 -55.000000 124.430641 62 62 65
68.000000 -55.000000 124.430641 90 95 102
69.000000 -55.000000 124.785141 120 130 146
70.000000 -55.000000 124.785141 134 147 170
71.000000 -55.000000 124.785141 144 157 185
72.000000 -55.000000 125.139648 155 167 201
73.000000 -55.000000 125.494148 159 172 211
74.000000 -55.000000 125.848648 161 176 218
75.000000 -55.000000 125.848648 168 186 226
76.000000 -55.000000 125.494148 178 195 227
77.000000 -55.000000 125.494148 167 185 223
78.000000 -55.000000 124.785141 158 177 217
79.000000 -55.000000 124.785141 154 172 208
80.000000 -55.000000 124.785141 151 167 197
81.000000 -55.000000 125.494148 142 157 181
82.000000 -55.000000 126.203156 123 134 156
83.000000 -55.000000 126.557655 100 101 108
84.000000 -55.000000 126.557655 87 57 54
85.000000 -55.000000 77.636208 93 38 32
86.000000 -55.000000 76.218201 95 37 30
87.000000 -55.000000 75.154686 100 37 32
88.000000 -55.000000 73.736671 102 37 33
89.000000 -55.000000 70.546143 103 39 33
90.000000 -55.000000 68.064621 106 40 35
91.000000 -55.000000 68.064621 108 40 37
92.000000 -55.000000 68.419128 109 41 38
93.000000 -55.000000 71.609657 110 41 39
94.000000 -55.000000 72.318665 110 40 39
95.000000 -55.000000 72.673164 110 41 37
96.000000 -55.000000 73.027672 109 41 34
97.000000 -55.000000 74.091179 110 41 35
98.000000 -55.000000 75.509193 111 40 37
99.000000 -55.000000 77.281708 112 40 37
100.000000 -55.000000 77.990715 113 41 37
101.000000 -55.000000 79.408730 114 42 39
102.000000 -55.000000 80.117737 115 43 41
103.000000 -55.000000 80.472237 114 43 41
104.000000 -55.000000 80.826736 114 43 39
105.000000 -55.000000 81.890251 113 42 38
106.000000 -55.000000 73.027672 111 41 38
107.000000 -55.000000 69.482635 110 42 37
108.000000 -55.000000 69.482635 109 41 34
109.000000 -55.000000 71.255150 108 41 34
110.000000 -55.000000 69.128136 106 40 34
111.000000 -55.000000 34.032310 101 39 35
112.000000 -55.000000 34.032310 99 38 35
113.000000 -55.000000 34.741318 99 38 36
114.000000 -55.000000 38.640854 98 37 36
115.000000 -55.000000 61.683563 95 35 36
116.000000 -55.000000 62.392570 93 34 35
117.000000 -55.000000 63.456081 92 34 33
118.000000 -55.000000 64.874092 91 33 33
119.000000 -55.000000 64.874092 90 33 34
120.000000 -55.000000 63.810585 89 33 33
121.000000 -55.000000 63.456081 89 33 32
122.000000 -55.000000 63.101578 87 32 32
123.000000 -55.000000 63.101578 86 31 31
124.000000 -55.000000 63.456081 85 31 30
125.000000 -55.000000 64.165085 82 30 28
126.000000 -55.000000 69.128136 82 30 28
127.000000 -55.000000 73.736671 81 30 27
128.000000 -55.000000 74.800186 81 29 26
129.000000 -55.000000 74.800186 81 28 25
130.000000 -55.000000 7.090065 82 28 27
131.000000 -55.000000 10.280594 80 28 26
132.000000 -55.000000 10.280594 78 28 25
133.000000 -55.000000 10.635098 77 27 24
134.000000 -55.000000 11.344104 76 26 23
135.000000 -55.000000 34.032310 73 25 22
136.000000 -55.000000 40.058868 70 24 22
137.000000 -55.000000 44.312904 67 24 20
138.000000 -55.000000 44.312904 65 23 19
139.000000 -55.000000 -5.672052 62 21 18
140.000000 -55.000000 -5.672052 59 18 18
141.000000 -55.000000 -5.672052 53 15 16
142.000000 -55.000000 -5.672052 48 14 12
143.000000 -55.000000 64.165085 43 13 9
144.000000 -55.000000 65.937607 38 12 8
145.000000 -55.000000 67.001114 36 11 7
146.000000 -55.000000 68.064621 30 10 6
147.000000 -55.000000 69.128136 16 9 6
148.000000 -55.000000 73.382172 8 7 5
149.000000 -55.000000 79.054222 6 6 5
150.000000 -55.000000 85.080780 5 5 5
151.000000 -55.000000 86.144287 4 4 4
152.000000 -55.000000 87.207802 4 4 4
153.000000 -55.000000 91.107330 7 6 5
154.000000 -55.000000 96.424881 10 8 5
155.000000 -55.000000 96.424881 14 11 6
156.000000 -55.000000 97.133888 23 16 10
157.000000 -55.000000 97.133888 28 19 12
158.000000 -55.000000 0.000000 25 18 9
63.000000 -56.000000 120.176598 56 52 50
64.000000 -56.000000 121.594612 62 58 57
65.000000 -56.000000 123.367126 64 61 61
66.000000 -56.000000 124.076134 63 61 62
67.000000 -56.000000 124.430641 63 63 65
68.000000 -56.000000 124.785141 76 87 95
69.000000 -56.000000 124.785141 91 115 132
70.000000 -56.000000 125.139648 96 127 147
71.000000 -56.000000 125.139648 100 131 154
72.000000 -56.000000 125.494148 104 134 160
73.000000 -56.000000 125.848648 106 136 163
74.000000 -56.000000 126.203156 110 138 168
75.000000 -56.000000 126.203156 114 142 174
76.000000 -56.000000 126.203156 116 145 175
77.000000 -56.000000 126.557655 115 143 171
78.000000 -56.000000 125.848648 114 140 165
79.000000 -56.000000 125.848648 111 136 157
80.000000 -56.000000 125.848648 107 131 145
81.000000 -56.000000 126.557655 102 123 132
82.000000 -56.000000 127.266663 95 110 115
83.000000 -56.000000 127.621170 80 88 86
84.000000 -56.000000 128.684677 62 54 52
85.000000 -56.000000 128.684677 59 39 37
86.000000 -56.000000 77.990715 60 38 36
87.000000 -56.000000 76.572701 63 38 38
88.000000 -56.000000 75.154686 62 36 36
89.000000 -56.000000 73.027672 59 35 33
90.000000 -56.000000 71.609657 61 36 32
91.000000 -56.000000 71.609657 64 35 32
92.000000 -56.000000 72.318665 64 34 32
93.000000 -56.000000 73.027672 65 33 33
94.000000 -56.000000 73.736671 65 32 32
95.000000 -56.000000 73.736671 65 32 31
96.000000 -56.000000 74.091179 65 32 29
97.000000 -56.000000 75.509193 67 33 29
98.000000 -56.000000 77.990715 71 33 27
99.000000 -56.000000 77.990715 73 32 28
100.000000 -56.000000 78.345215 74 32 29
101.000000 -56.000000 79.408730 75 32 30
102.000000 -56.000000 80.472237 78 33 32
103.000000 -56.000000 81.535744 81 34 32
104.000000 -56.000000 81.890251 82 34 29
105.000000 -56.000000 80.826736 83 34 29
106.000000 -56.000000 74.091179 84 34 30
107.000000 -56.000000 72.673164 84 35 30
108.000000 -56.000000 72.673164 86 34 29
109.000000 -56.000000 72.318665 86 34 28
110.000000 -56.000000 69.128136 85 34 29
111.000000 -56.000000 34.032310 82 34 31
112.000000 -56.000000 34.032310 81 33 31
113.000000 -56.000000 34.032310 84 32 31
114.000000 -56.000000 37.931847 84 32 30
115.000000 -56.000000 61.329060 83 32 29
116.000000 -56.000000 62.747074 82 31 28
117.000000 -56.000000 64.519592 82 31 29
118.000000 -56.000000 67.001114 81 30 28
119.000000 -56.000000 67.001114 82 30 29
120.000000 -56.000000 64.874092 83 30 29
121.000000 -56.000000 63.810585 82 31 30
122.000000 -56.000000 63.810585 81 30 31
123.000000 -56.000000 63.456081 80 30 30
124.000000 -56.000000 63.810585 79 30 27
125.000000 -56.000000 64.519592 78 30 27
126.000000 -56.000000 69.837135 78 30 27
127.000000 -56.000000 73.736671 78 30 25
128.000000 -56.000000 74.800186 78 30 24
129.000000 -56.000000 74.800186 79 28 25
130.000000 -56.000000 7.090065 78 27 26
131.000000 -56.000000 7.799071 77 27 27
132.000000 -56.000000 7.799071 77 28 28
133.000000 -56.000000 10.280594 76 28 27
134.000000 -56.000000 11.344104 74 26 24
135.000000 -56.000000 34.032310 72 24 22
136.000000 -56.000000 39.349861 69 24 21
137.000000 -56.000000 10.280594 65 24 20
140.000000 -56.000000 -5.672052 57 18 16
141.000000 -56.000000 -5.672052 51 16 13
142.000000 -56.000000 62.392570 47 14 11
143.000000 -56.000000 64.519592 43 13 8
144.000000 -56.000000 67.001114 39 12 7
145.000000 -56.000000 68.064621 36 11 6
146.000000 -56.000000 69.837135 30 10 6
147.000000 -56.000000 71.609657 18 10 7
148.000000 -56.000000 79.054222 10 10 6
149.000000 -56.000000 84.726273 7 8 4
150.000000 -56.000000 86.144287 6 6 4
151.000000 -56.000000 86.853294 4 5 3
152.000000 -56.000000 87.207802 4 5 2
153.000000 -56.000000 91.107330 6 7 4
154.000000 -56.000000 96.070381 9 9 5
155.000000 -56.000000 96.424881 14 12 6
156.000000 -56.000000 96.779388 23 17 11
157.000000 -56.000000 96.424881 29 19 11
158.000000 -56.000000 0.000000 27 17 9
63.000000 -57.000000 120.176598 57 52 52
64.000000 -57.000000 121.240112 63 59 59
65.000000 -57.000000 123.367126 64 62 62
66.000000 -57.000000 124.430641 64 62 63
67.000000 -57.000000 124.785141 66 65 66
68.000000 -57.000000 124.785141 75 87 94
69.000000 -57.000000 125.139648 86 114 131
70.000000 -57.000000 125.494148 89 125 143
71.000000 -57.000000 125.848648 91 128 148
72.000000 -57.000000 125.848648 94 128 151
73.000000 -57.000000 126.203156 95 130 152
74.000000 -57.000000 126.203156 97 131 154
75.000000 -57.000000 126.557655 100 133 157
76.000000 -57.000000 126.557655 102 134 155
77.000000 -57.000000 126.912163 103 134 153
78.000000 -57.000000 126.912163 103 134 154
79.000000 -57.000000 126.912163 101 132 149
80.000000 -57.000000 126.912163 100 127 139
81.000000 -57.000000 127.975670 98 120 128
82.000000 -57.000000 128.684677 94 112 115
83.000000 -57.000000 129.039185 90 102 103
84.000000 -57.000000 129.393677 85 86 88
85.000000 -57.000000 129.748184 84 79 83
86.000000 -57.000000 130.102692 88 86 90
87.000000 -57.000000 130.457199 90 90 94
88.000000 -57.000000 77.990715 83 80 82
89.000000 -57.000000 75.154686 69 61 61
90.000000 -57.000000 73.736671 64 51 48
91.000000 -57.000000 73.382172 65 49 46
92.000000 -57.000000 73.382172 63 46 45
93.000000 -57.000000 73.736671 62 46 47
94.000000 -57.000000 74.091179 60 45 46
95.000000 -57.000000 74.800186 58 43 43
96.000000 -57.000000 75.863693 56 42 42
97.000000 -57.000000 77.990715 55 44 41
98.000000 -57.000000 79.408730 56 44 39
99.000000 -57.000000 79.408730 57 41 38
100.000000 -57.000000 79.408730 57 39 38
101.000000 -57.000000 79.763229 56 39 38
102.000000 -57.000000 81.535744 55 39 38
103.000000 -57.000000 81.890251 55 37 35
104.000000 -57.000000 81.890251 54 36 33
105.000000 -57.000000 80.472237 52 35 33
106.000000 -57.000000 77.281708 51 35 33
107.000000 -57.000000 74.091179 51 33 32
108.000000 -57.000000 73.027672 52 31 31
109.000000 -57.000000 72.673164 52 30 29
110.000000 -57.000000 32.614300 50 29 27
111.000000 -57.000000 32.968803 47 28 26
112.000000 -57.000000 34.032310 46 27 25
113.000000 -57.000000 34.032310 49 26 24
114.000000 -57.000000 37.931847 49 25 22
115.000000 -57.000000 60.974560 49 24 20
116.000000 -57.000000 62.747074 49 24 20
117.000000 -57.000000 64.519592 49 24 20
118.000000 -57.000000 66.646606 49 23 19
119.000000 -57.000000 66.646606 49 23 20
120.000000 -57.000000 64.874092 50 23 20
121.000000 -57.000000 64.165085 49 23 21
122.000000 -57.000000 63.810585 49 23 23
123.000000 -57.000000 63.810585 50 23 22
124.000000 -57.000000 63.810585 50 23 18
125.000000 -57.000000 64.519592 51 24 18
126.000000 -57.000000 65.583099 53 23 20
127.000000 -57.000000 70.546143 54 22 19
128.000000 -57.000000 73.736671 55 22 19
129.000000 -57.000000 -5.672052 57 23 19
130.000000 -57.000000 -5.672052 57 22 19
131.000000 -57.000000 7.444568 58 23 21
132.000000 -57.000000 7.799071 60 24 23
133.000000 -57.000000 10.280594 60 24 22
134.000000 -57.000000 -5.672052 59 22 19
135.000000 -57.000000 10.280594 59 21 19
136.000000 -57.000000 15.243640 57 21 19
137.000000 -57.000000 15.243640 56 21 18
138.000000 -57.000000 24.106220 54 20 15
140.000000 -57.000000 -5.672052 50 18 12
141.000000 -57.000000 -5.672052 45 17 10
142.000000 -57.000000 62.392570 42 14 11
143.000000 -57.000000 64.165085 39 12 9
144.000000 -57.000000 66.646606 35 11 7
145.000000 -57.000000 68.064621 33 10 6
146.000000 -57.000000 71.255150 28 10 6
147.000000 -57.000000 74.091179 16 10 8
148.000000 -57.000000 79.054222 10 10 7
149.000000 -57.000000 85.080780 8 8 5
150.000000 -57.000000 86.498795 6 7 3
151.000000 -57.000000 87.207802 5 6 2
152.000000 -57.000000 88.625809 4 5 1
153.000000 -57.000000 91.461838 7 7 2
154.000000 -57.000000 96.070381 10 9 5
155.000000 -57.000000 96.424881 16 13 9
156.000000 -57.000000 96.424881 23 17 11
157.000000 -57.000000 96.424881 27 18 10
158.000000 -57.000000 0.000000 25 16 9
63.000000 -58.000000 119.467590 56 53 53
64.000000 -58.000000 120.531105 61 58 59
65.000000 -58.000000 123.367126 62 61 62
66.000000 -58.000000 124.430641 63 63 62
67.000000 -58.000000 124.785141 65 65 66
68.000000 -58.000000 125.139648 74 86 93
69.000000 -58.000000 125.494148 83 112 128
70.000000 -58.000000 125.494148 87 124 141
71.000000 -58.000000 125.848648 89 128 146
72.000000 -58.000000 126.203156 92 129 149
73.000000 -58.000000 126.203156 94 130 152
74.000000 -58.000000 126.557655 95 130 153
75.000000 -58.000000 126.557655 97 132 154
76.000000 -58.000000 126.912163 99 133 152
77.000000 -58.000000 127.266663 100 133 153
78.000000 -58.000000 127.621170 99 132 153
79.000000 -58.000000 128.684677 98 130 149
80.000000 -58.000000 129.039185 99 126 141
81.000000 -58.000000 129.393677 98 119 129
82.000000 -58.000000 129.393677 95 116 121
83.000000 -58.000000 129.748184 108 129 135
84.000000 -58.000000 129.748184 111 133 143
85.000000 -58.000000 130.102692 101 120 133
86.000000 -58.000000 130.457199 96 111 123
87.000000 -58.000000 130.811691 101 116 127
88.000000 -58.000000 131.166199 112 129 138
89.000000 -58.000000 131.166199 101 103 107
90.000000 -58.000000 75.154686 82 68 65
91.000000 -58.000000 73.736671 79 59 54
92.000000 -58.000000 73.736671 79 57 56
93.000000 -58.000000 74.091179 80 58 60
94.000000 -58.000000 75.154686 79 57 58
95.000000 -58.000000 76.218201 77 56 55
96.000000 -58.000000 78.345215 75 55 53
97.000000 -58.000000 79.408730 74 56 52
98.000000 -58.000000 80.472237 76 57 53
99.000000 -58.000000 80.472237 77 55 52
100.000000 -58.000000 79.763229 77 54 52
101.000000 -58.000000 80.826736 74 53 53
102.000000 -58.000000 81.890251 73 53 54
103.000000 -58.000000 81.890251 72 54 53
104.000000 -58.000000 80.826736 71 54 52
105.000000 -58.000000 80.472237 71 52 51
106.000000 -58.000000 79.408730 69 51 49
107.000000 -58.000000 77.281708 67 49 47
108.000000 -58.000000 74.091179 65 48 45
109.000000 -58.000000 28.714764 62 46 43
110.000000 -58.000000 29.778273 60 44 41
111.000000 -58.000000 32.614300 58 42 41
112.000000 -58.000000 34.032310 57 40 40
113.000000 -58.000000 34.032310 56 39 38
114.000000 -58.000000 37.577343 54 37 36
115.000000 -58.000000 60.974560 52 36 33
116.000000 -58.000000 62.392570 50 35 32
117.000000 -58.000000 63.810585 50 35 32
118.000000 -58.000000 64.519592 48 34 31
119.000000 -58.000000 64.874092 45 32 29
120.000000 -58.000000 64.165085 45 31 28
121.000000 -58.000000 64.165085 45 31 29
122.000000 -58.000000 63.810585 42 29 28
123.000000 -58.000000 63.810585 39 28 26
124.000000 -58.000000 63.810585 38 28 25
125.000000 -58.000000 63.456081 38 27 25
126.000000 -58.000000 63.810585 37 26 24
127.000000 -58.000000 3.545033 36 25 20
128.000000 -58.000000 -5.672052 35 24 20
129.000000 -58.000000 -5.672052 37 25 21
130.000000 -58.000000 -5.672052 35 23 19
131.000000 -58.000000 7.444568 36 23 18
132.000000 -58.000000 9.217084 34 22 19
133.000000 -58.000000 10.280594 32 21 18
134.000000 -58.000000 6.735562 32 20 17
135.000000 -58.000000 7.090065 33 20 18
136.000000 -58.000000 10.635098 32 18 18
137.000000 -58.000000 15.243640 32 18 16
138.000000 -58.000000 23.397215 31 17 13
139.000000 -58.000000 23.397215 31 16 12
140.000000 -58.000000 -5.672052 29 16 11
141.000000 -58.000000 -5.672052 27 14 9
142.000000 -58.000000 -5.672052 24 11 9
143.000000 -58.000000 62.392570 22 9 6
144.000000 -58.000000 64.165085 20 9 5
145.000000 -58.000000 66.646606 18 9 5
146.000000 -58.000000 71.255150 16 10 5
147.000000 -58.000000 74.445679 11 10 7
148.000000 -58.000000 79.054222 9 10 7
149.000000 -58.000000 84.726273 9 9 7
150.000000 -58.000000 85.080780 8 9 7
151.000000 -58.000000 87.207802 8 8 5
152.000000 -58.000000 88.625809 7 7 3
153.000000 -58.000000 91.816338 7 8 3
154.000000 -58.000000 96.070381 10 9 5
155.000000 -58.000000 96.424881 17 14 9
156.000000 -58.000000 96.424881 22 16 11
157.000000 -58.000000 96.424881 24 17 11
158.000000 -58.000000 1.063510 23 16 10
63.000000 -59.000000 119.113091 56 52 52
64.000000 -59.000000 120.176598 60 58 58
65.000000 -59.000000 123.367126 61 60 59
66.000000 -59.000000 124.785141 61 61 59
67.000000 -59.000000 124.785141 62 63 62
68.000000 -59.000000 125.139648 73 84 88
69.000000 -59.000000 125.494148 83 112 124
70.000000 -59.000000 125.848648 86 123 139
71.000000 -59.000000 125.848648 88 127 147
72.000000 -59.000000 126.203156 91 128 147
73.000000 -59.000000 126.557655 94 129 149
74.000000 -59.000000 126.912163 96 129 151
75.000000 -59.000000 126.912163 97 131 152
76.000000 -59.000000 127.266663 98 132 153
77.000000 -59.000000 127.621170 98 131 152
78.000000 -59.000000 128.684677 98 130 151
79.000000 -59.000000 129.039185 96 129 148
80.000000 -59.000000 129.748184 97 124 139
81.000000 -59.000000 129.748184 95 117 126
82.000000 -59.000000 129.748184 93 114 120
83.000000 -59.000000 129.748184 101 128 140
84.000000 -59.000000 129.748184 94 123 140
85.000000 -59.000000 130.102692 75 90 102
86.000000 -59.000000 130.457199 72 71 76
87.000000 -59.000000 130.811691 78 73 76
88.000000 -59.000000 131.166199 94 102 111
89.000000 -59.000000 131.166199 106 119 128
90.000000 -59.000000 131.166199 89 82 84
91.000000 -59.000000 73.736671 82 61 59
92.000000 -59.000000 73.736671 83 59 57
93.000000 -59.000000 75.154686 84 59 59
94.000000 -59.000000 76.927200 84 58 58
95.000000 -59.000000 78.345215 83 58 57
96.000000 -59.000000 79.408730 83 58 56
97.000000 -59.000000 79.763229 83 59 56
98.000000 -59.000000 80.472237 84 60 58
99.000000 -59.000000 80.472237 84 59 58
100.000000 -59.000000 80.117737 84 59 57
101.000000 -59.000000 79.763229 82 59 58
102.000000 -59.000000 79.763229 81 60 59
103.000000 -59.000000 79.763229 80 59 57
104.000000 -59.000000 79.763229 80 59 56
105.000000 -59.000000 79.408730 81 58 57
106.000000 -59.000000 78.345215 80 57 55
107.000000 -59.000000 77.281708 78 56 54
108.000000 -59.000000 28.714764 77 56 52
109.000000 -59.000000 28.360260 74 55 50
110.000000 -59.000000 28.714764 72 53 48
111.000000 -59.000000 30.841782 71 50 49
112.000000 -59.000000 33.323303 70 49 48
113.000000 -59.000000 37.222839 70 50 46
114.000000 -59.000000 39.349861 69 49 46
115.000000 -59.000000 60.974560 66 47 44
116.000000 -59.000000 62.392570 66 47 43
117.000000 -59.000000 63.101578 65 48 42
118.000000 -59.000000 63.810585 64 47 41
119.000000 -59.000000 64.165085 63 45 40
120.000000 -59.000000 64.165085 63 44 42
121.000000 -59.000000 64.165085 62 44 43
122.000000 -59.000000 63.810585 58 42 41
123.000000 -59.000000 63.456081 57 41 38
124.000000 -59.000000 63.101578 56 41 38
125.000000 -59.000000 62.747074 54 39 36
126.000000 -59.000000 -5.672052 53 38 36
127.000000 -59.000000 -5.672052 52 38 36
128.000000 -59.000000 -5.672052 52 38 35
129.000000 -59.000000 -5.672052 51 37 34
130.000000 -59.000000 4.254039 48 36 32
131.000000 -59.000000 6.381058 46 36 30
132.000000 -59.000000 8.508078 44 35 29
133.000000 -59.000000 9.926091 42 33 28
134.000000 -59.000000 8.508078 42 33 30
135.000000 -59.000000 9.926091 40 32 31
136.000000 -59.000000 10.989600 39 30 29
137.000000 -59.000000 15.598143 37 29 27
138.000000 -59.000000 23.397215 34 27 24
139.000000 -59.000000 28.360260 33 25 23
140.000000 -59.000000 28.360260 31 23 21
141.000000 -59.000000 -5.672052 29 21 18
142.000000 -59.000000 -5.672052 25 17 15
143.000000 -59.000000 -5.672052 21 15 10
144.000000 -59.000000 58.138531 20 15 8
145.000000 -59.000000 58.138531 18 14 9
146.000000 -59.000000 58.138531 15 13 9
147.000000 -59.000000 71.255150 15 14 10
148.000000 -59.000000 74.445679 15 13 10
149.000000 -59.000000 78.699722 14 13 9
150.000000 -59.000000 -5.672052 13 13 9
151.000000 -59.000000 -5.672052 12 12 8
152.000000 -59.000000 88.625809 11 11 7
153.000000 -59.000000 91.816338 11 11 6
154.000000 -59.000000 96.070381 12 10 6
155.000000 -59.000000 96.424881 16 13 7
156.000000 -59.000000 96.424881 20 14 9
157.000000 -59.000000 1.063510 23 16 13
158.000000 -59.000000 0.709006 24 16 13
63.000000 -60.000000 119.113091 55 51 49
64.000000 -60.000000 120.176598 59 56 54
65.000000 -60.000000 123.367126 60 58 57
66.000000 -60.000000 124.785141 59 59 58
67.000000 -60.000000 125.139648 61 60 60
68.000000 -60.000000 125.494148 73 83 87
69.000000 -60.000000 125.494148 85 111 126
70.000000 -60.000000 125.848648 86 121 141
71.000000 -60.000000 125.848648 88 125 146
72.000000 -60.000000 126.557655 90 127 145
73.000000 -60.000000 126.912163 92 128 144
74.000000 -60.000000 127.266663 94 129 148
75.000000 -60.000000 127.621170 94 129 150
76.000000 -60.000000 127.621170 95 130 149
77.000000 -60.000000 128.330170 95 129 145
78.000000 -60.000000 128.684677 95 129 146
79.000000 -60.000000 129.393677 94 128 145
80.000000 -60.000000 130.102692 95 123 135
81.000000 -60.000000 130.102692 93 115 122
82.000000 -60.000000 130.102692 88 109 114
83.000000 -60.000000 129.748184 86 109 119
84.000000 -60.000000 130.102692 73 87 95
85.000000 -60.000000 130.102692 71 61 63
86.000000 -60.000000 130.457199 78 56 54
87.000000 -60.000000 130.457199 81 56 55
88.000000 -60.000000 130.811691 85 71 74
89.000000 -60.000000 131.166199 98 108 116
90.000000 -60.000000 131.166199 87 90 93
91.000000 -60.000000 130.811691 83 62 61
92.000000 -60.000000 75.154686 85 60 56
93.000000 -60.000000 77.281708 85 59 57
94.000000 -60.000000 77.990715 85 59 58
95.000000 -60.000000 78.345215 85 59 57
96.000000 -60.000000 79.408730 84 59 56
97.000000 -60.000000 79.763229 84 59 55
98.000000 -60.000000 80.117737 85 59 57
99.000000 -60.000000 80.117737 86 60 59
100.000000 -60.000000 80.117737 85 60 58
101.000000 -60.000000 77.636208 83 61 58
102.000000 -60.000000 73.736671 83 61 59
103.000000 -60.000000 74.445679 82 61 58
104.000000 -60.000000 77.636208 82 61 59
105.000000 -60.000000 77.636208 83 60 60
106.000000 -60.000000 77.281708 82 59 59
107.000000 -60.000000 72.673164 80 59 57
108.000000 -60.000000 26.233240 79 58 54
109.000000 -60.000000 26.587744 78 57 52
110.000000 -60.000000 28.360260 76 56 52
111.000000 -60.000000 29.778273 75 54 51
112.000000 -60.000000 32.968803 73 52 49
113.000000 -60.000000 37.577343 73 52 47
114.000000 -60.000000 39.349861 74 53 47
115.000000 -60.000000 60.620056 72 52 46
116.000000 -60.000000 61.683563 72 52 45
117.000000 -60.000000 62.392570 71 52 42
118.000000 -60.000000 62.392570 70 51 41
119.000000 -60.000000 -5.672052 69 49 42
120.000000 -60.000000 -5.672052 69 49 45
121.000000 -60.000000 -5.672052 67 49 46
122.000000 -60.000000 -5.672052 65 49 42
123.000000 -60.000000 -5.672052 65 48 39
124.000000 -60.000000 -5.672052 64 47 40
125.000000 -60.000000 -5.672052 63 46 41
127.000000 -60.000000 -5.672052 64 45 43
128.000000 -60.000000 -5.672052 63 44 44
129.000000 -60.000000 1.418013 62 45 42
130.000000 -60.000000 4.254039 60 44 41
131.000000 -60.000000 5.672052 57 42 36
132.000000 -60.000000 6.735562 55 41 33
133.000000 -60.000000 8.508078 55 40 35
134.000000 -60.000000 7.799071 54 41 39
135.000000 -60.000000 9.926091 52 40 38
136.000000 -60.000000 10.989600 52 38 35
137.000000 -60.000000 15.598143 52 36 32
138.000000 -60.000000 22.688208 48 34 30
139.000000 -60.000000 28.360260 44 33 29
140.000000 -60.000000 28.360260 41 31 26
141.000000 -60.000000 -5.672052 39 29 24
142.000000 -60.000000 -5.672052 35 26 22
143.000000 -60.000000 -5.672052 31 24 19
144.000000 -60.000000 -5.672052 29 22 15
145.000000 -60.000000 -5.672052 27 19 14
146.000000 -60.000000 -5.672052 24 17 13
147.000000 -60.000000 -5.672052 23 17 13
148.000000 -60.000000 -5.672052 22 17 14
149.000000 -60.000000 -5.672052 20 16 12
150.000000 -60.000000 -5.672052 18 15 10
151.000000 -60.000000 -5.672052 16 14 9
152.000000 -60.000000 -5.672052 15 14 8
153.000000 -60.000000 -0.709006 14 13 8
154.000000 -60.000000 91.816338 14 12 6
155.000000 -60.000000 96.070381 16 12 6
156.000000 -60.000000 0.709006 18 14 8
