ply
		format ascii 1.0
		element vertex 8582
		property float x
		property float y
		property float z
		property uchar red
		property uchar green
		property uchar blue
		end_header
121.000000 -24.000000 58.493034 185 151 106
122.000000 -24.000000 61.329060 182 148 101
123.000000 -24.000000 63.456081 179 146 98
124.000000 -24.000000 67.001114 177 144 96
125.000000 -24.000000 70.546143 174 140 92
126.000000 -24.000000 74.800186 171 138 90
127.000000 -24.000000 79.763229 168 136 87
128.000000 -24.000000 79.763229 164 132 84
129.000000 -24.000000 64.874092 153 123 78
130.000000 -24.000000 63.810585 99 78 51
131.000000 -24.000000 63.810585 51 44 36
132.000000 -24.000000 64.874092 42 39 35
133.000000 -24.000000 64.874092 36 32 29
134.000000 -24.000000 58.493034 31 27 23
135.000000 -24.000000 57.784027 34 25 18
136.000000 -24.000000 57.784027 47 31 19
137.000000 -24.000000 113.086533 70 48 31
138.000000 -24.000000 113.441040 83 61 36
139.000000 -24.000000 113.441040 64 47 25
140.000000 -24.000000 113.441040 29 25 15
141.000000 -24.000000 113.795540 16 18 13
142.000000 -24.000000 114.150047 14 17 14
143.000000 -24.000000 114.504547 15 18 16
144.000000 -24.000000 114.859055 15 18 17
145.000000 -24.000000 115.922562 14 18 16
146.000000 -24.000000 117.340576 18 19 16
147.000000 -24.000000 119.113091 19 21 16
148.000000 -24.000000 121.240112 27 26 18
149.000000 -24.000000 123.367126 67 48 24
150.000000 -24.000000 124.076134 92 59 25
151.000000 -24.000000 124.785141 95 61 26
152.000000 -24.000000 124.430641 96 62 28
153.000000 -24.000000 45.376415 95 61 26
154.000000 -24.000000 45.376415 94 60 24
155.000000 -24.000000 46.439926 93 60 24
156.000000 -24.000000 46.439926 89 56 22
157.000000 -24.000000 43.958401 85 53 21
158.000000 -24.000000 41.831383 80 50 22
63.000000 -25.000000 157.044937 164 162 162
64.000000 -25.000000 158.462952 183 190 205
65.000000 -25.000000 159.171951 190 201 220
66.000000 -25.000000 159.880966 187 197 213
67.000000 -25.000000 160.944473 175 181 190
68.000000 -25.000000 162.362488 180 184 190
69.000000 -25.000000 164.489502 191 194 201
70.000000 -25.000000 164.844009 215 219 231
71.000000 -25.000000 165.553009 233 238 251
72.000000 -25.000000 165.907516 235 241 254
73.000000 -25.000000 165.907516 235 239 252
74.000000 -25.000000 165.553009 235 238 249
75.000000 -25.000000 165.553009 237 239 249
76.000000 -25.000000 165.198517 238 241 249
77.000000 -25.000000 165.198517 239 242 251
78.000000 -25.000000 165.553009 238 243 252
79.000000 -25.000000 165.553009 232 242 252
80.000000 -25.000000 165.907516 224 238 252
81.000000 -25.000000 166.262024 219 235 254
82.000000 -25.000000 165.907516 216 233 254
83.000000 -25.000000 165.553009 212 231 252
84.000000 -25.000000 165.198517 210 230 251
85.000000 -25.000000 164.844009 212 231 252
86.000000 -25.000000 164.489502 218 232 251
87.000000 -25.000000 164.489502 222 235 252
88.000000 -25.000000 164.489502 217 234 248
89.000000 -25.000000 164.489502 169 182 188
90.000000 -25.000000 164.489502 118 124 123
91.000000 -25.000000 164.844009 122 128 129
92.000000 -25.000000 164.844009 138 146 152
93.000000 -25.000000 164.844009 159 170 180
94.000000 -25.000000 164.844009 176 190 204
95.000000 -25.000000 164.489502 179 196 213
96.000000 -25.000000 164.489502 188 206 227
97.000000 -25.000000 163.780502 193 214 235
98.000000 -25.000000 163.425995 191 212 233
99.000000 -25.000000 163.071487 192 212 234
100.000000 -25.000000 162.007980 196 216 238
101.000000 -25.000000 160.944473 199 215 238
102.000000 -25.000000 160.589966 198 213 236
103.000000 -25.000000 159.880966 199 213 235
104.000000 -25.000000 159.526459 201 215 236
105.000000 -25.000000 159.171951 198 210 229
106.000000 -25.000000 158.817459 190 202 219
107.000000 -25.000000 158.817459 187 197 210
108.000000 -25.000000 158.817459 189 194 205
109.000000 -25.000000 158.462952 188 193 204
110.000000 -25.000000 157.399445 190 198 208
111.000000 -25.000000 156.335938 190 198 209
112.000000 -25.000000 155.981430 189 197 207
113.000000 -25.000000 154.917923 180 186 195
114.000000 -25.000000 154.208908 173 179 188
115.000000 -25.000000 153.854401 179 185 194
116.000000 -25.000000 153.499908 171 175 185
117.000000 -25.000000 153.499908 162 163 170
118.000000 -25.000000 153.145401 155 152 150
119.000000 -25.000000 57.429527 167 148 125
120.000000 -25.000000 57.429527 184 152 110
121.000000 -25.000000 59.202042 184 150 103
122.000000 -25.000000 62.038067 181 147 100
123.000000 -25.000000 63.456081 178 144 98
124.000000 -25.000000 66.646606 176 142 96
125.000000 -25.000000 70.546143 173 139 92
126.000000 -25.000000 74.445679 171 137 89
127.000000 -25.000000 79.054222 168 135 86
128.000000 -25.000000 79.054222 165 131 83
129.000000 -25.000000 66.646606 155 123 78
130.000000 -25.000000 64.165085 98 78 51
131.000000 -25.000000 64.165085 49 43 34
132.000000 -25.000000 64.519592 40 37 33
133.000000 -25.000000 64.519592 35 30 27
134.000000 -25.000000 58.493034 32 26 22
135.000000 -25.000000 58.138531 34 26 18
136.000000 -25.000000 58.138531 47 31 20
137.000000 -25.000000 113.086533 70 49 30
138.000000 -25.000000 113.441040 84 63 37
139.000000 -25.000000 113.441040 63 47 24
140.000000 -25.000000 113.441040 29 25 15
141.000000 -25.000000 113.795540 17 18 14
142.000000 -25.000000 113.795540 15 16 14
143.000000 -25.000000 114.150047 15 16 15
144.000000 -25.000000 114.504547 14 17 16
145.000000 -25.000000 114.859055 14 17 15
146.000000 -25.000000 116.277061 16 17 15
147.000000 -25.000000 117.695076 19 19 15
148.000000 -25.000000 120.176598 28 26 18
149.000000 -25.000000 123.012627 68 47 26
150.000000 -25.000000 123.367126 91 58 26
151.000000 -25.000000 124.076134 93 59 24
152.000000 -25.000000 123.721634 92 60 24
153.000000 -25.000000 46.439926 92 59 23
154.000000 -25.000000 46.439926 92 59 23
155.000000 -25.000000 47.148930 92 58 23
156.000000 -25.000000 47.148930 87 54 22
157.000000 -25.000000 43.958401 82 51 22
158.000000 -25.000000 41.831383 79 49 20
63.000000 -26.000000 157.399445 173 171 169
64.000000 -26.000000 158.817459 189 196 210
65.000000 -26.000000 159.880966 195 205 224
66.000000 -26.000000 160.589966 191 201 218
67.000000 -26.000000 161.298981 176 183 190
68.000000 -26.000000 163.071487 181 185 190
69.000000 -26.000000 164.844009 196 202 209
70.000000 -26.000000 165.553009 219 226 238
71.000000 -26.000000 165.907516 233 239 253
72.000000 -26.000000 165.907516 235 241 254
73.000000 -26.000000 165.907516 235 239 252
74.000000 -26.000000 165.553009 236 238 251
75.000000 -26.000000 165.198517 237 239 251
76.000000 -26.000000 165.198517 238 240 251
77.000000 -26.000000 165.198517 238 240 252
78.000000 -26.000000 165.198517 238 240 252
79.000000 -26.000000 165.553009 237 242 252
80.000000 -26.000000 165.553009 231 242 252
81.000000 -26.000000 165.553009 225 239 254
82.000000 -26.000000 165.553009 221 235 254
83.000000 -26.000000 165.198517 217 234 253
84.000000 -26.000000 165.198517 212 230 252
85.000000 -26.000000 164.844009 212 230 253
86.000000 -26.000000 164.489502 218 232 253
87.000000 -26.000000 164.489502 220 234 252
88.000000 -26.000000 164.489502 208 224 239
89.000000 -26.000000 164.489502 148 158 163
90.000000 -26.000000 164.489502 110 113 109
91.000000 -26.000000 164.844009 109 110 107
92.000000 -26.000000 165.198517 114 116 112
93.000000 -26.000000 165.198517 133 136 134
94.000000 -26.000000 165.198517 148 151 154
95.000000 -26.000000 164.844009 152 158 165
96.000000 -26.000000 164.489502 188 200 214
97.000000 -26.000000 163.425995 205 223 244
98.000000 -26.000000 163.425995 201 220 243
99.000000 -26.000000 163.071487 197 216 240
100.000000 -26.000000 162.007980 195 215 238
101.000000 -26.000000 160.944473 196 213 235
102.000000 -26.000000 160.589966 197 211 233
103.000000 -26.000000 160.235474 199 212 234
104.000000 -26.000000 159.880966 199 212 233
105.000000 -26.000000 159.526459 194 206 225
106.000000 -26.000000 159.171951 189 200 217
107.000000 -26.000000 158.817459 187 196 210
108.000000 -26.000000 158.817459 183 189 198
109.000000 -26.000000 158.108444 184 191 201
110.000000 -26.000000 157.399445 188 196 208
111.000000 -26.000000 155.981430 189 198 210
112.000000 -26.000000 155.981430 186 194 204
113.000000 -26.000000 154.563416 177 182 190
114.000000 -26.000000 153.854401 176 179 187
115.000000 -26.000000 153.854401 178 182 190
116.000000 -26.000000 153.499908 165 167 174
117.000000 -26.000000 153.499908 159 159 165
118.000000 -26.000000 153.499908 160 153 145
119.000000 -26.000000 57.784027 175 151 121
120.000000 -26.000000 57.784027 185 151 109
121.000000 -26.000000 60.974560 183 149 102
122.000000 -26.000000 62.392570 180 146 100
123.000000 -26.000000 63.810585 177 144 97
124.000000 -26.000000 66.646606 174 141 94
125.000000 -26.000000 70.546143 173 139 91
126.000000 -26.000000 74.445679 170 136 88
127.000000 -26.000000 74.445679 168 134 85
128.000000 -26.000000 68.064621 165 131 82
129.000000 -26.000000 67.001114 155 123 76
130.000000 -26.000000 64.165085 98 77 49
131.000000 -26.000000 64.165085 47 43 32
132.000000 -26.000000 64.519592 37 35 30
133.000000 -26.000000 64.519592 32 28 25
134.000000 -26.000000 59.556545 29 24 21
135.000000 -26.000000 58.493034 33 25 17
136.000000 -26.000000 58.847538 47 31 19
137.000000 -26.000000 113.086533 71 49 28
138.000000 -26.000000 113.441040 86 63 36
139.000000 -26.000000 113.441040 62 46 23
140.000000 -26.000000 113.441040 26 23 12
141.000000 -26.000000 113.795540 14 15 11
142.000000 -26.000000 113.795540 12 12 9
143.000000 -26.000000 114.150047 10 11 7
144.000000 -26.000000 114.150047 9 11 7
145.000000 -26.000000 114.859055 10 11 8
146.000000 -26.000000 115.568054 20 17 12
147.000000 -26.000000 117.340576 38 28 16
148.000000 -26.000000 119.113091 51 35 20
149.000000 -26.000000 122.658119 77 50 27
150.000000 -26.000000 123.012627 90 57 23
151.000000 -26.000000 123.367126 91 57 21
152.000000 -26.000000 123.012627 91 58 22
153.000000 -26.000000 48.921448 91 58 21
154.000000 -26.000000 48.921448 90 56 20
155.000000 -26.000000 48.566944 90 56 21
156.000000 -26.000000 48.566944 87 53 21
157.000000 -26.000000 45.376415 82 51 19
158.000000 -26.000000 41.831383 78 49 16
63.000000 -27.000000 157.753937 183 179 175
64.000000 -27.000000 159.171951 192 199 214
65.000000 -27.000000 160.235474 195 206 223
66.000000 -27.000000 160.944473 188 198 214
67.000000 -27.000000 162.362488 176 182 190
68.000000 -27.000000 164.134995 185 189 195
69.000000 -27.000000 165.553009 200 205 214
70.000000 -27.000000 166.262024 222 228 241
71.000000 -27.000000 166.262024 233 238 253
72.000000 -27.000000 166.262024 233 237 253
73.000000 -27.000000 165.907516 232 236 253
74.000000 -27.000000 165.907516 233 236 251
75.000000 -27.000000 165.553009 235 238 250
76.000000 -27.000000 165.198517 237 239 251
77.000000 -27.000000 165.198517 238 240 252
78.000000 -27.000000 165.553009 238 239 251
79.000000 -27.000000 165.553009 238 240 253
80.000000 -27.000000 165.553009 235 242 253
81.000000 -27.000000 165.553009 232 242 254
82.000000 -27.000000 165.553009 232 242 254
83.000000 -27.000000 165.553009 228 241 253
84.000000 -27.000000 165.198517 221 235 253
85.000000 -27.000000 165.198517 215 230 253
86.000000 -27.000000 164.844009 215 230 253
87.000000 -27.000000 164.844009 216 230 251
88.000000 -27.000000 164.489502 196 208 222
89.000000 -27.000000 164.844009 132 137 139
90.000000 -27.000000 164.844009 108 109 104
91.000000 -27.000000 164.844009 108 109 104
92.000000 -27.000000 165.198517 114 115 110
93.000000 -27.000000 165.198517 130 130 128
94.000000 -27.000000 165.198517 131 130 131
95.000000 -27.000000 164.844009 137 140 143
96.000000 -27.000000 164.134995 184 194 207
97.000000 -27.000000 163.425995 204 218 240
98.000000 -27.000000 163.071487 202 218 241
99.000000 -27.000000 163.071487 199 218 240
100.000000 -27.000000 162.007980 197 217 238
101.000000 -27.000000 161.298981 194 211 231
102.000000 -27.000000 160.944473 191 205 225
103.000000 -27.000000 160.589966 191 204 224
104.000000 -27.000000 160.235474 192 204 224
105.000000 -27.000000 159.526459 192 203 223
106.000000 -27.000000 159.526459 190 201 220
107.000000 -27.000000 159.171951 187 196 210
108.000000 -27.000000 158.817459 182 189 197
109.000000 -27.000000 158.108444 180 190 199
110.000000 -27.000000 157.399445 185 195 208
111.000000 -27.000000 155.981430 186 197 212
112.000000 -27.000000 155.272415 183 192 205
113.000000 -27.000000 153.854401 181 185 193
114.000000 -27.000000 153.854401 179 183 191
115.000000 -27.000000 153.499908 173 177 184
116.000000 -27.000000 153.499908 158 160 165
117.000000 -27.000000 153.854401 154 155 157
118.000000 -27.000000 153.854401 163 151 133
119.000000 -27.000000 60.265553 181 151 111
120.000000 -27.000000 60.265553 184 150 103
121.000000 -27.000000 60.974560 181 148 100
122.000000 -27.000000 62.392570 179 145 99
123.000000 -27.000000 64.165085 175 143 97
124.000000 -27.000000 67.001114 173 140 92
125.000000 -27.000000 70.191643 171 138 91
126.000000 -27.000000 72.673164 169 135 89
127.000000 -27.000000 72.673164 167 133 86
128.000000 -27.000000 68.064621 164 131 82
129.000000 -27.000000 67.001114 152 122 75
130.000000 -27.000000 64.519592 94 75 47
131.000000 -27.000000 64.519592 46 42 32
132.000000 -27.000000 65.583099 36 35 31
133.000000 -27.000000 65.583099 31 28 25
134.000000 -27.000000 60.620056 28 24 20
135.000000 -27.000000 59.556545 32 24 16
136.000000 -27.000000 60.265553 47 31 18
137.000000 -27.000000 113.086533 72 50 27
138.000000 -27.000000 113.441040 86 63 35
139.000000 -27.000000 113.441040 58 42 23
140.000000 -27.000000 113.441040 19 16 7
141.000000 -27.000000 113.795540 8 9 4
142.000000 -27.000000 114.150047 6 6 2
143.000000 -27.000000 114.150047 5 6 1
144.000000 -27.000000 114.150047 5 6 1
145.000000 -27.000000 114.859055 6 6 2
146.000000 -27.000000 115.568054 26 19 9
147.000000 -27.000000 117.340576 62 40 15
148.000000 -27.000000 119.113091 76 47 16
149.000000 -27.000000 121.240112 86 54 20
150.000000 -27.000000 122.658119 89 56 20
151.000000 -27.000000 123.012627 90 56 21
152.000000 -27.000000 123.012627 91 56 22
153.000000 -27.000000 48.921448 90 56 19
154.000000 -27.000000 48.921448 89 55 19
155.000000 -27.000000 48.566944 88 54 20
156.000000 -27.000000 48.566944 85 51 18
157.000000 -27.000000 45.376415 81 48 15
158.000000 -27.000000 41.831383 76 47 13
63.000000 -28.000000 158.108444 189 182 177
64.000000 -28.000000 159.526459 192 199 213
65.000000 -28.000000 160.589966 193 204 221
66.000000 -28.000000 161.298981 186 197 212
67.000000 -28.000000 163.071487 172 178 188
68.000000 -28.000000 164.844009 166 173 180
69.000000 -28.000000 166.262024 166 175 185
70.000000 -28.000000 166.971024 186 197 208
71.000000 -28.000000 166.971024 202 212 225
72.000000 -28.000000 166.616531 207 214 231
73.000000 -28.000000 166.262024 209 215 231
74.000000 -28.000000 166.262024 210 217 232
75.000000 -28.000000 165.907516 218 224 237
76.000000 -28.000000 165.553009 228 231 244
77.000000 -28.000000 165.553009 232 236 249
78.000000 -28.000000 165.553009 235 238 251
79.000000 -28.000000 165.553009 237 239 252
80.000000 -28.000000 165.907516 235 240 252
81.000000 -28.000000 165.907516 234 241 253
82.000000 -28.000000 165.907516 233 241 254
83.000000 -28.000000 165.553009 231 242 254
84.000000 -28.000000 165.553009 227 240 254
85.000000 -28.000000 165.553009 219 235 253
86.000000 -28.000000 165.198517 215 231 251
87.000000 -28.000000 164.844009 213 226 245
88.000000 -28.000000 164.844009 175 183 194
89.000000 -28.000000 164.844009 117 120 119
90.000000 -28.000000 164.844009 105 106 101
91.000000 -28.000000 164.844009 106 107 102
92.000000 -28.000000 165.198517 109 110 106
93.000000 -28.000000 165.198517 115 115 113
94.000000 -28.000000 164.844009 116 116 116
95.000000 -28.000000 164.489502 137 142 145
96.000000 -28.000000 163.425995 186 197 213
97.000000 -28.000000 163.071487 200 215 237
98.000000 -28.000000 163.071487 202 218 241
99.000000 -28.000000 163.071487 201 221 242
100.000000 -28.000000 162.362488 198 217 238
101.000000 -28.000000 161.653473 193 209 228
102.000000 -28.000000 161.298981 188 203 222
103.000000 -28.000000 161.298981 186 200 219
104.000000 -28.000000 160.589966 184 198 216
105.000000 -28.000000 159.880966 186 199 216
106.000000 -28.000000 159.526459 189 201 217
107.000000 -28.000000 159.171951 190 199 212
108.000000 -28.000000 158.817459 184 192 201
109.000000 -28.000000 158.108444 180 189 198
110.000000 -28.000000 157.399445 180 190 202
111.000000 -28.000000 155.626923 180 190 204
112.000000 -28.000000 154.917923 180 189 201
113.000000 -28.000000 153.854401 180 185 194
114.000000 -28.000000 153.499908 179 181 188
115.000000 -28.000000 153.499908 166 169 173
116.000000 -28.000000 153.499908 155 158 160
117.000000 -28.000000 154.208908 155 154 153
118.000000 -28.000000 154.208908 168 151 126
119.000000 -28.000000 60.620056 182 151 106
120.000000 -28.000000 60.620056 183 149 101
121.000000 -28.000000 61.329060 180 146 98
122.000000 -28.000000 62.747074 178 144 97
123.000000 -28.000000 64.519592 175 142 95
124.000000 -28.000000 67.355614 173 140 94
125.000000 -28.000000 69.837135 171 137 92
126.000000 -28.000000 70.546143 169 135 89
127.000000 -28.000000 70.546143 167 134 86
128.000000 -28.000000 68.064621 163 131 81
129.000000 -28.000000 67.001114 150 121 75
130.000000 -28.000000 64.874092 92 73 46
131.000000 -28.000000 64.874092 45 41 32
132.000000 -28.000000 66.292107 36 34 30
133.000000 -28.000000 66.292107 31 28 25
134.000000 -28.000000 61.683563 27 24 21
135.000000 -28.000000 60.620056 31 25 17
136.000000 -28.000000 60.620056 46 31 17
137.000000 -28.000000 113.086533 70 49 28
138.000000 -28.000000 113.441040 86 62 36
139.000000 -28.000000 113.441040 58 40 21
140.000000 -28.000000 113.441040 17 13 6
141.000000 -28.000000 113.795540 7 8 2
142.000000 -28.000000 114.150047 5 6 1
143.000000 -28.000000 114.150047 4 5 0
144.000000 -28.000000 114.504547 4 5 0
145.000000 -28.000000 114.859055 5 6 1
146.000000 -28.000000 115.568054 27 19 9
147.000000 -28.000000 117.340576 65 40 14
148.000000 -28.000000 118.404083 80 48 13
149.000000 -28.000000 120.531105 86 53 18
150.000000 -28.000000 122.303619 86 54 19
151.000000 -28.000000 122.658119 87 55 19
152.000000 -28.000000 122.658119 88 55 20
153.000000 -28.000000 47.148930 88 54 18
154.000000 -28.000000 47.148930 88 54 19
155.000000 -28.000000 48.566944 87 53 19
156.000000 -28.000000 48.566944 82 48 16
157.000000 -28.000000 45.376415 79 46 13
158.000000 -28.000000 41.831383 75 45 14
63.000000 -29.000000 158.817459 183 176 166
64.000000 -29.000000 159.880966 191 197 209
65.000000 -29.000000 160.589966 194 204 220
66.000000 -29.000000 161.298981 180 192 207
67.000000 -29.000000 163.071487 132 147 154
68.000000 -29.000000 165.198517 99 123 124
69.000000 -29.000000 166.616531 85 116 116
70.000000 -29.000000 166.971024 88 121 121
71.000000 -29.000000 168.034531 105 135 138
72.000000 -29.000000 168.034531 126 147 153
73.000000 -29.000000 168.034531 138 155 160
74.000000 -29.000000 167.680038 148 161 166
75.000000 -29.000000 166.971024 165 173 182
76.000000 -29.000000 166.616531 183 190 201
77.000000 -29.000000 166.616531 202 208 220
78.000000 -29.000000 166.616531 218 224 237
79.000000 -29.000000 166.616531 229 233 246
80.000000 -29.000000 166.616531 233 238 250
81.000000 -29.000000 166.616531 234 241 252
82.000000 -29.000000 166.616531 233 240 253
83.000000 -29.000000 166.262024 231 240 254
84.000000 -29.000000 165.907516 230 240 255
85.000000 -29.000000 165.907516 227 239 254
86.000000 -29.000000 165.553009 224 236 252
87.000000 -29.000000 165.198517 210 222 237
88.000000 -29.000000 165.198517 153 159 165
89.000000 -29.000000 165.198517 110 112 109
90.000000 -29.000000 165.198517 105 106 101
91.000000 -29.000000 165.198517 106 107 102
92.000000 -29.000000 164.844009 107 108 103
93.000000 -29.000000 164.844009 108 108 106
94.000000 -29.000000 164.489502 112 113 111
95.000000 -29.000000 164.134995 149 156 158
96.000000 -29.000000 163.425995 195 208 225
97.000000 -29.000000 163.071487 203 219 241
98.000000 -29.000000 163.071487 204 221 243
99.000000 -29.000000 163.071487 201 219 241
100.000000 -29.000000 162.716995 195 213 234
101.000000 -29.000000 162.362488 190 205 225
102.000000 -29.000000 162.362488 189 204 222
103.000000 -29.000000 161.298981 190 205 223
104.000000 -29.000000 161.298981 188 204 220
105.000000 -29.000000 160.235474 186 200 216
106.000000 -29.000000 159.526459 186 200 214
107.000000 -29.000000 158.817459 188 199 211
108.000000 -29.000000 158.462952 182 190 199
109.000000 -29.000000 157.753937 178 185 194
110.000000 -29.000000 157.044937 179 187 198
111.000000 -29.000000 155.626923 178 187 199
112.000000 -29.000000 154.563416 175 183 194
113.000000 -29.000000 153.854401 172 177 185
114.000000 -29.000000 153.854401 170 172 176
115.000000 -29.000000 153.499908 162 164 165
116.000000 -29.000000 153.854401 165 166 168
117.000000 -29.000000 154.563416 164 161 159
118.000000 -29.000000 154.563416 172 152 126
119.000000 -29.000000 60.974560 180 150 104
120.000000 -29.000000 60.974560 180 148 97
121.000000 -29.000000 61.683563 178 145 96
122.000000 -29.000000 63.456081 176 143 95
123.000000 -29.000000 65.583099 174 141 95
124.000000 -29.000000 67.710121 173 139 93
125.000000 -29.000000 69.482635 170 136 90
126.000000 -29.000000 70.191643 168 134 87
127.000000 -29.000000 70.191643 166 133 85
128.000000 -29.000000 67.710121 162 131 81
129.000000 -29.000000 66.646606 149 120 74
130.000000 -29.000000 64.874092 89 72 45
131.000000 -29.000000 64.874092 44 39 30
132.000000 -29.000000 66.646606 36 32 29
133.000000 -29.000000 66.646606 31 27 24
134.000000 -29.000000 63.101578 28 24 20
135.000000 -29.000000 61.683563 33 25 17
136.000000 -29.000000 61.683563 46 31 16
137.000000 -29.000000 113.086533 70 48 27
138.000000 -29.000000 113.441040 87 61 35
139.000000 -29.000000 113.441040 61 41 19
140.000000 -29.000000 113.441040 18 13 5
141.000000 -29.000000 113.795540 7 8 3
142.000000 -29.000000 114.150047 5 6 1
143.000000 -29.000000 114.504547 4 5 0
144.000000 -29.000000 114.504547 4 5 0
145.000000 -29.000000 115.213554 6 6 1
146.000000 -29.000000 115.922562 27 20 10
147.000000 -29.000000 116.986069 65 41 15
148.000000 -29.000000 118.049583 79 48 16
149.000000 -29.000000 119.113091 84 52 20
150.000000 -29.000000 121.240112 84 53 19
151.000000 -29.000000 122.658119 84 53 17
152.000000 -29.000000 122.658119 85 54 16
153.000000 -29.000000 45.730919 85 53 16
154.000000 -29.000000 45.730919 85 52 18
155.000000 -29.000000 46.794430 84 51 17
156.000000 -29.000000 46.439926 79 47 12
157.000000 -29.000000 43.958401 76 44 10
158.000000 -29.000000 41.122375 73 43 12
63.000000 -30.000000 158.817459 174 165 155
64.000000 -30.000000 159.880966 187 192 203
65.000000 -30.000000 160.589966 189 200 215
66.000000 -30.000000 160.944473 174 185 198
67.000000 -30.000000 163.071487 114 132 135
68.000000 -30.000000 164.489502 69 105 99
69.000000 -30.000000 165.907516 58 100 93
70.000000 -30.000000 166.971024 56 98 91
71.000000 -30.000000 168.034531 57 98 91
72.000000 -30.000000 168.034531 62 100 94
73.000000 -30.000000 168.034531 68 103 97
74.000000 -30.000000 167.680038 78 109 104
75.000000 -30.000000 167.680038 90 116 113
76.000000 -30.000000 167.325531 102 123 122
77.000000 -30.000000 167.325531 123 139 139
78.000000 -30.000000 167.325531 150 162 166
79.000000 -30.000000 166.971024 178 187 195
80.000000 -30.000000 168.034531 203 210 221
81.000000 -30.000000 167.680038 221 228 239
82.000000 -30.000000 167.680038 230 237 248
83.000000 -30.000000 166.971024 231 239 252
84.000000 -30.000000 166.262024 232 240 254
85.000000 -30.000000 165.907516 231 240 254
86.000000 -30.000000 165.907516 227 236 252
87.000000 -30.000000 165.553009 202 211 224
88.000000 -30.000000 165.553009 136 141 144
89.000000 -30.000000 165.198517 108 109 105
90.000000 -30.000000 165.198517 106 107 102
91.000000 -30.000000 165.198517 107 108 103
92.000000 -30.000000 164.844009 108 109 104
93.000000 -30.000000 164.489502 106 107 104
94.000000 -30.000000 164.134995 117 118 116
95.000000 -30.000000 163.780502 169 176 182
96.000000 -30.000000 163.425995 204 218 237
97.000000 -30.000000 163.071487 203 220 241
98.000000 -30.000000 163.071487 200 217 239
99.000000 -30.000000 163.071487 197 213 235
100.000000 -30.000000 163.071487 193 208 230
101.000000 -30.000000 162.716995 189 205 224
102.000000 -30.000000 162.716995 188 203 221
103.000000 -30.000000 162.362488 189 205 222
104.000000 -30.000000 161.298981 191 206 223
105.000000 -30.000000 160.235474 193 206 222
106.000000 -30.000000 159.526459 192 204 220
107.000000 -30.000000 158.817459 188 197 210
108.000000 -30.000000 158.108444 178 184 192
109.000000 -30.000000 157.399445 177 182 189
110.000000 -30.000000 157.044937 174 180 188
111.000000 -30.000000 155.626923 155 162 168
112.000000 -30.000000 154.563416 148 153 158
113.000000 -30.000000 154.208908 153 158 161
114.000000 -30.000000 153.854401 153 156 157
115.000000 -30.000000 153.854401 160 161 163
116.000000 -30.000000 154.208908 171 170 176
117.000000 -30.000000 154.563416 165 158 151
118.000000 -30.000000 154.563416 175 151 117
119.000000 -30.000000 60.974560 180 149 103
120.000000 -30.000000 60.974560 179 147 97
121.000000 -30.000000 61.683563 177 144 93
122.000000 -30.000000 63.810585 175 142 92
123.000000 -30.000000 65.583099 174 140 92
124.000000 -30.000000 67.710121 172 138 90
125.000000 -30.000000 69.482635 169 135 88
126.000000 -30.000000 70.191643 167 134 85
127.000000 -30.000000 70.191643 163 132 83
128.000000 -30.000000 67.001114 161 130 80
129.000000 -30.000000 64.874092 149 119 72
130.000000 -30.000000 64.519592 89 71 45
131.000000 -30.000000 64.874092 45 37 30
132.000000 -30.000000 67.001114 38 32 28
133.000000 -30.000000 67.001114 32 27 24
134.000000 -30.000000 63.810585 28 24 19
135.000000 -30.000000 61.683563 32 24 14
136.000000 -30.000000 61.683563 46 30 15
137.000000 -30.000000 113.086533 71 47 26
138.000000 -30.000000 113.441040 88 60 33
139.000000 -30.000000 113.441040 61 39 17
140.000000 -30.000000 113.441040 19 12 5
141.000000 -30.000000 113.795540 6 7 2
142.000000 -30.000000 114.150047 5 6 1
143.000000 -30.000000 114.504547 4 5 0
144.000000 -30.000000 114.504547 4 5 0
145.000000 -30.000000 115.213554 6 6 1
146.000000 -30.000000 115.922562 28 21 9
147.000000 -30.000000 115.922562 66 41 16
148.000000 -30.000000 116.986069 81 47 17
149.000000 -30.000000 118.404083 84 50 19
150.000000 -30.000000 119.113091 85 50 19
151.000000 -30.000000 121.240112 84 50 17
152.000000 -30.000000 43.603901 84 51 16
153.000000 -30.000000 44.312904 84 51 16
154.000000 -30.000000 45.376415 81 49 16
155.000000 -30.000000 45.376415 80 48 15
156.000000 -30.000000 45.376415 77 45 12
157.000000 -30.000000 43.603901 73 42 9
158.000000 -30.000000 40.767872 71 41 11
63.000000 -31.000000 158.817459 164 156 146
64.000000 -31.000000 158.817459 176 181 192
65.000000 -31.000000 159.880966 178 189 205
66.000000 -31.000000 160.589966 168 179 190
67.000000 -31.000000 161.653473 122 138 141
68.000000 -31.000000 163.071487 68 104 100
69.000000 -31.000000 164.489502 54 97 90
70.000000 -31.000000 165.907516 52 93 84
71.000000 -31.000000 166.616531 50 90 81
72.000000 -31.000000 166.971024 50 88 79
73.000000 -31.000000 167.680038 49 88 80
74.000000 -31.000000 167.680038 51 90 82
75.000000 -31.000000 167.680038 53 93 86
76.000000 -31.000000 167.325531 56 95 89
77.000000 -31.000000 167.325531 63 98 92
78.000000 -31.000000 168.034531 74 106 100
79.000000 -31.000000 168.034531 89 117 113
80.000000 -31.000000 169.098053 110 133 134
81.000000 -31.000000 168.743546 140 160 163
82.000000 -31.000000 168.743546 169 185 191
83.000000 -31.000000 167.680038 192 205 215
84.000000 -31.000000 166.971024 210 220 232
85.000000 -31.000000 166.262024 217 227 242
86.000000 -31.000000 165.907516 216 226 245
87.000000 -31.000000 165.907516 184 192 206
88.000000 -31.000000 165.553009 122 125 127
89.000000 -31.000000 165.553009 106 107 103
90.000000 -31.000000 165.198517 106 107 102
91.000000 -31.000000 165.198517 108 109 104
92.000000 -31.000000 164.844009 108 109 105
93.000000 -31.000000 164.489502 107 108 107
94.000000 -31.000000 164.134995 127 130 132
95.000000 -31.000000 164.134995 189 196 209
96.000000 -31.000000 163.780502 210 222 243
97.000000 -31.000000 163.425995 206 219 241
98.000000 -31.000000 163.425995 198 214 235
99.000000 -31.000000 163.425995 191 208 228
100.000000 -31.000000 163.425995 188 204 225
101.000000 -31.000000 163.425995 188 203 222
102.000000 -31.000000 163.425995 186 201 220
103.000000 -31.000000 163.071487 186 201 218
104.000000 -31.000000 161.298981 189 203 220
105.000000 -31.000000 159.880966 190 204 220
106.000000 -31.000000 158.817459 192 205 220
107.000000 -31.000000 158.462952 187 196 210
108.000000 -31.000000 157.399445 177 183 190
109.000000 -31.000000 157.044937 175 179 186
110.000000 -31.000000 156.690430 145 147 154
111.000000 -31.000000 155.272415 106 106 105
112.000000 -31.000000 154.563416 107 107 104
113.000000 -31.000000 154.563416 123 124 121
114.000000 -31.000000 153.854401 139 142 140
115.000000 -31.000000 153.854401 167 169 171
116.000000 -31.000000 154.208908 167 167 170
117.000000 -31.000000 154.208908 163 151 133
118.000000 -31.000000 154.208908 177 149 109
119.000000 -31.000000 61.329060 180 147 102
120.000000 -31.000000 61.329060 176 143 95
121.000000 -31.000000 62.038067 175 141 92
122.000000 -31.000000 63.810585 174 140 92
123.000000 -31.000000 65.228600 173 139 91
124.000000 -31.000000 67.355614 171 137 89
125.000000 -31.000000 69.128136 169 135 87
126.000000 -31.000000 70.191643 166 133 85
127.000000 -31.000000 70.191643 163 131 83
128.000000 -31.000000 65.937607 161 129 81
129.000000 -31.000000 64.519592 149 118 74
130.000000 -31.000000 64.519592 87 71 46
131.000000 -31.000000 64.519592 44 37 30
132.000000 -31.000000 66.646606 38 32 28
133.000000 -31.000000 66.646606 33 27 24
134.000000 -31.000000 63.810585 28 24 17
135.000000 -31.000000 61.683563 32 24 13
136.000000 -31.000000 60.620056 47 31 16
137.000000 -31.000000 60.620056 70 47 25
138.000000 -31.000000 113.441040 87 61 32
139.000000 -31.000000 113.441040 62 42 20
140.000000 -31.000000 113.441040 19 13 5
141.000000 -31.000000 113.795540 6 7 2
142.000000 -31.000000 114.150047 5 6 1
143.000000 -31.000000 114.504547 4 5 0
144.000000 -31.000000 114.504547 4 5 0
145.000000 -31.000000 114.859055 6 6 1
146.000000 -31.000000 115.568054 30 20 10
147.000000 -31.000000 115.922562 68 40 17
148.000000 -31.000000 115.922562 81 47 17
149.000000 -31.000000 116.986069 84 49 18
150.000000 -31.000000 116.986069 84 50 18
151.000000 -31.000000 115.568054 83 49 17
152.000000 -31.000000 40.767872 84 50 16
153.000000 -31.000000 42.185886 82 50 15
154.000000 -31.000000 44.312904 79 48 14
155.000000 -31.000000 45.021912 79 47 14
156.000000 -31.000000 44.667408 77 43 13
157.000000 -31.000000 43.603901 74 40 10
158.000000 -31.000000 40.767872 71 40 10
63.000000 -32.000000 158.108444 155 149 135
64.000000 -32.000000 158.817459 171 176 186
65.000000 -32.000000 158.817459 175 186 201
66.000000 -32.000000 159.526459 166 176 187
67.000000 -32.000000 160.589966 125 137 141
68.000000 -32.000000 161.653473 71 101 97
69.000000 -32.000000 163.071487 52 91 83
70.000000 -32.000000 164.134995 48 86 78
71.000000 -32.000000 164.844009 46 82 75
72.000000 -32.000000 165.198517 46 80 74
73.000000 -32.000000 165.907516 46 82 74
74.000000 -32.000000 166.262024 46 84 76
75.000000 -32.000000 166.616531 46 85 79
76.000000 -32.000000 166.971024 47 86 81
77.000000 -32.000000 167.325531 49 88 82
78.000000 -32.000000 168.034531 51 91 84
79.000000 -32.000000 168.034531 55 94 88
80.000000 -32.000000 169.098053 59 97 92
81.000000 -32.000000 168.743546 66 103 99
82.000000 -32.000000 168.743546 77 111 108
83.000000 -32.000000 168.034531 94 124 123
84.000000 -32.000000 166.971024 116 141 143
85.000000 -32.000000 166.262024 141 161 168
86.000000 -32.000000 165.907516 164 179 191
87.000000 -32.000000 165.553009 147 157 166
88.000000 -32.000000 165.553009 109 112 111
89.000000 -32.000000 165.553009 105 106 101
90.000000 -32.000000 165.198517 106 106 102
91.000000 -32.000000 165.198517 107 108 103
92.000000 -32.000000 164.844009 108 109 105
93.000000 -32.000000 164.489502 109 111 108
94.000000 -32.000000 164.489502 142 146 149
95.000000 -32.000000 164.134995 201 210 224
96.000000 -32.000000 164.134995 213 224 242
97.000000 -32.000000 164.134995 213 223 242
98.000000 -32.000000 164.134995 207 220 238
99.000000 -32.000000 164.134995 194 211 230
100.000000 -32.000000 164.134995 185 203 223
101.000000 -32.000000 164.134995 182 198 217
102.000000 -32.000000 163.780502 181 195 214
103.000000 -32.000000 163.425995 183 195 215
104.000000 -32.000000 161.653473 187 199 218
105.000000 -32.000000 159.880966 188 201 218
106.000000 -32.000000 158.817459 187 200 215
107.000000 -32.000000 157.753937 185 194 208
108.000000 -32.000000 157.044937 182 186 195
109.000000 -32.000000 156.690430 172 175 185
110.000000 -32.000000 155.981430 128 130 134
111.000000 -32.000000 155.272415 95 92 89
112.000000 -32.000000 154.563416 89 84 80
113.000000 -32.000000 154.563416 90 87 80
114.000000 -32.000000 154.208908 127 128 124
115.000000 -32.000000 154.208908 168 169 172
116.000000 -32.000000 154.208908 160 155 151
117.000000 -32.000000 154.208908 168 148 120
118.000000 -32.000000 61.329060 178 148 105
119.000000 -32.000000 61.329060 178 145 99
120.000000 -32.000000 61.329060 174 140 92
121.000000 -32.000000 62.038067 173 139 91
122.000000 -32.000000 63.456081 172 138 90
123.000000 -32.000000 64.874092 171 138 89
124.000000 -32.000000 67.001114 170 136 88
125.000000 -32.000000 68.773628 168 134 86
126.000000 -32.000000 69.837135 165 132 84
127.000000 -32.000000 69.837135 163 130 82
128.000000 -32.000000 64.519592 161 128 81
129.000000 -32.000000 64.165085 148 117 75
130.000000 -32.000000 63.810585 86 71 47
131.000000 -32.000000 64.165085 43 38 30
132.000000 -32.000000 65.937607 36 31 28
133.000000 -32.000000 65.937607 32 27 23
134.000000 -32.000000 63.456081 28 23 17
135.000000 -32.000000 60.974560 34 25 14
136.000000 -32.000000 58.847538 48 32 16
137.000000 -32.000000 58.847538 70 48 24
138.000000 -32.000000 113.441040 90 64 34
139.000000 -32.000000 113.441040 71 50 28
140.000000 -32.000000 113.441040 24 17 8
141.000000 -32.000000 113.441040 5 6 1
142.000000 -32.000000 114.150047 4 5 0
143.000000 -32.000000 114.504547 4 5 0
144.000000 -32.000000 114.504547 4 5 0
145.000000 -32.000000 114.859055 6 6 1
146.000000 -32.000000 115.213554 31 21 10
147.000000 -32.000000 115.213554 69 41 15
148.000000 -32.000000 115.213554 81 48 14
149.000000 -32.000000 115.213554 83 50 14
150.000000 -32.000000 114.504547 81 49 11
151.000000 -32.000000 40.058868 81 48 13
152.000000 -32.000000 40.058868 84 50 15
153.000000 -32.000000 40.767872 82 49 14
154.000000 -32.000000 43.249397 78 47 12
155.000000 -32.000000 44.667408 77 46 12
156.000000 -32.000000 44.667408 76 42 11
157.000000 -32.000000 43.603901 74 39 10
158.000000 -32.000000 41.476879 71 38 9
63.000000 -33.000000 156.335938 149 144 128
64.000000 -33.000000 158.108444 166 169 176
65.000000 -33.000000 158.108444 163 170 181
66.000000 -33.000000 158.462952 135 146 152
67.000000 -33.000000 158.817459 91 110 108
68.000000 -33.000000 160.235474 59 88 82
69.000000 -33.000000 160.589966 48 82 75
70.000000 -33.000000 161.653473 44 78 71
71.000000 -33.000000 163.071487 44 76 70
72.000000 -33.000000 163.780502 44 76 70
73.000000 -33.000000 163.780502 44 77 70
74.000000 -33.000000 164.489502 45 79 72
75.000000 -33.000000 164.489502 44 80 74
76.000000 -33.000000 164.844009 44 81 75
77.000000 -33.000000 165.553009 45 83 76
78.000000 -33.000000 166.262024 47 86 78
79.000000 -33.000000 168.034531 49 88 82
80.000000 -33.000000 168.034531 51 90 85
81.000000 -33.000000 168.034531 52 93 86
82.000000 -33.000000 168.034531 52 93 86
83.000000 -33.000000 166.971024 54 93 86
84.000000 -33.000000 166.262024 56 94 88
85.000000 -33.000000 165.907516 63 96 92
86.000000 -33.000000 165.553009 78 103 102
87.000000 -33.000000 165.553009 96 108 108
88.000000 -33.000000 165.198517 99 102 100
89.000000 -33.000000 165.198517 99 101 96
90.000000 -33.000000 165.198517 99 100 95
91.000000 -33.000000 164.844009 101 103 98
92.000000 -33.000000 164.489502 104 106 101
93.000000 -33.000000 164.489502 110 112 108
94.000000 -33.000000 164.489502 155 160 163
95.000000 -33.000000 164.489502 208 217 230
96.000000 -33.000000 164.489502 214 224 240
97.000000 -33.000000 164.489502 215 224 241
98.000000 -33.000000 164.489502 215 226 242
99.000000 -33.000000 164.489502 211 223 241
100.000000 -33.000000 164.489502 201 215 233
101.000000 -33.000000 164.489502 191 204 222
102.000000 -33.000000 164.134995 186 199 218
103.000000 -33.000000 163.780502 184 197 216
104.000000 -33.000000 162.362488 184 196 216
105.000000 -33.000000 159.880966 187 198 218
106.000000 -33.000000 158.817459 186 198 213
107.000000 -33.000000 157.753937 184 193 206
108.000000 -33.000000 157.044937 182 187 196
109.000000 -33.000000 156.690430 173 176 185
110.000000 -33.000000 155.626923 128 129 132
111.000000 -33.000000 155.272415 95 91 88
112.000000 -33.000000 154.563416 86 80 75
113.000000 -33.000000 154.563416 92 88 81
114.000000 -33.000000 154.563416 139 140 138
115.000000 -33.000000 154.563416 160 161 161
116.000000 -33.000000 154.563416 162 150 137
117.000000 -33.000000 154.208908 176 148 112
118.000000 -33.000000 62.038067 180 147 100
119.000000 -33.000000 61.329060 178 144 96
120.000000 -33.000000 61.683563 175 141 93
121.000000 -33.000000 62.038067 173 139 91
122.000000 -33.000000 63.456081 170 136 88
123.000000 -33.000000 64.874092 169 136 86
124.000000 -33.000000 67.001114 169 135 86
125.000000 -33.000000 68.773628 168 134 85
126.000000 -33.000000 68.773628 165 131 84
127.000000 -33.000000 64.519592 163 130 81
128.000000 -33.000000 64.165085 161 128 79
129.000000 -33.000000 63.810585 147 117 75
130.000000 -33.000000 63.810585 85 71 46
131.000000 -33.000000 63.810585 43 38 29
132.000000 -33.000000 64.519592 37 31 28
133.000000 -33.000000 64.519592 33 27 24
134.000000 -33.000000 62.747074 31 24 18
135.000000 -33.000000 60.620056 42 30 17
136.000000 -33.000000 58.847538 56 36 17
137.000000 -33.000000 58.847538 74 51 24
138.000000 -33.000000 113.441040 96 68 36
139.000000 -33.000000 113.441040 79 56 30
140.000000 -33.000000 113.441040 29 21 9
141.000000 -33.000000 113.795540 6 7 2
142.000000 -33.000000 114.150047 5 6 1
143.000000 -33.000000 114.504547 5 5 0
144.000000 -33.000000 114.859055 4 5 0
145.000000 -33.000000 115.213554 6 7 1
146.000000 -33.000000 115.213554 33 23 9
147.000000 -33.000000 115.213554 71 43 14
148.000000 -33.000000 115.213554 82 49 14
149.000000 -33.000000 114.859055 83 49 14
150.000000 -33.000000 114.504547 81 47 11
151.000000 -33.000000 39.704365 81 47 12
152.000000 -33.000000 39.704365 82 48 14
153.000000 -33.000000 40.058868 81 46 13
154.000000 -33.000000 43.249397 78 44 12
155.000000 -33.000000 44.667408 77 44 11
156.000000 -33.000000 44.667408 73 41 9
157.000000 -33.000000 44.312904 70 38 9
158.000000 -33.000000 42.894894 68 37 10
63.000000 -34.000000 154.563416 139 133 118
64.000000 -34.000000 156.335938 126 128 128
65.000000 -34.000000 156.690430 96 101 99
66.000000 -34.000000 157.044937 68 84 78
67.000000 -34.000000 157.753937 51 78 71
68.000000 -34.000000 158.462952 46 76 70
69.000000 -34.000000 158.462952 42 74 68
70.000000 -34.000000 158.817459 40 71 65
71.000000 -34.000000 159.526459 41 74 67
72.000000 -34.000000 160.589966 43 75 69
73.000000 -34.000000 162.362488 43 75 69
74.000000 -34.000000 163.071487 44 78 71
75.000000 -34.000000 163.425995 45 82 76
76.000000 -34.000000 163.780502 47 87 80
77.000000 -34.000000 164.489502 49 91 85
78.000000 -34.000000 164.844009 52 95 90
79.000000 -34.000000 165.907516 54 98 94
80.000000 -34.000000 165.907516 55 100 96
81.000000 -34.000000 166.262024 57 101 97
82.000000 -34.000000 166.262024 57 101 96
83.000000 -34.000000 165.907516 55 100 94
84.000000 -34.000000 165.198517 54 98 91
85.000000 -34.000000 165.198517 54 93 88
86.000000 -34.000000 165.198517 63 90 86
87.000000 -34.000000 165.198517 87 97 94
88.000000 -34.000000 165.198517 96 98 96
89.000000 -34.000000 165.198517 94 96 92
90.000000 -34.000000 164.844009 94 96 91
91.000000 -34.000000 164.844009 96 98 93
92.000000 -34.000000 164.489502 98 100 95
93.000000 -34.000000 164.489502 102 106 102
94.000000 -34.000000 164.489502 137 144 146
95.000000 -34.000000 164.489502 180 190 201
96.000000 -34.000000 164.844009 199 208 222
97.000000 -34.000000 164.844009 207 218 233
98.000000 -34.000000 165.198517 213 224 240
99.000000 -34.000000 165.198517 218 227 243
100.000000 -34.000000 164.844009 218 226 242
101.000000 -34.000000 164.489502 212 221 236
102.000000 -34.000000 164.489502 204 214 230
103.000000 -34.000000 164.134995 195 207 224
104.000000 -34.000000 162.716995 187 199 218
105.000000 -34.000000 160.235474 184 196 215
106.000000 -34.000000 158.817459 185 195 211
107.000000 -34.000000 158.108444 185 193 205
108.000000 -34.000000 157.399445 181 188 197
109.000000 -34.000000 157.044937 175 180 188
110.000000 -34.000000 155.626923 129 129 131
111.000000 -34.000000 155.272415 95 90 83
112.000000 -34.000000 154.563416 89 82 74
113.000000 -34.000000 154.563416 104 99 92
114.000000 -34.000000 154.563416 153 153 151
115.000000 -34.000000 154.563416 165 162 158
116.000000 -34.000000 154.917923 170 151 125
117.000000 -34.000000 154.563416 179 147 103
118.000000 -34.000000 62.038067 179 146 97
119.000000 -34.000000 61.329060 177 144 94
120.000000 -34.000000 61.329060 175 142 92
121.000000 -34.000000 62.038067 174 140 90
122.000000 -34.000000 63.456081 171 137 87
123.000000 -34.000000 64.519592 169 136 85
124.000000 -34.000000 67.001114 168 135 85
125.000000 -34.000000 68.773628 167 133 85
126.000000 -34.000000 68.773628 164 131 82
127.000000 -34.000000 64.165085 162 130 81
128.000000 -34.000000 63.456081 160 127 79
129.000000 -34.000000 63.456081 147 116 73
130.000000 -34.000000 63.456081 84 69 44
131.000000 -34.000000 63.456081 42 38 28
132.000000 -34.000000 63.810585 38 32 29
133.000000 -34.000000 63.456081 34 26 24
134.000000 -34.000000 62.038067 31 25 18
135.000000 -34.000000 60.265553 44 32 16
136.000000 -34.000000 59.556545 59 38 16
137.000000 -34.000000 59.556545 77 53 24
138.000000 -34.000000 113.795540 100 73 38
139.000000 -34.000000 113.795540 84 61 33
140.000000 -34.000000 113.795540 34 24 12
141.000000 -34.000000 114.150047 11 10 4
142.000000 -34.000000 114.504547 9 9 4
143.000000 -34.000000 114.859055 9 9 3
144.000000 -34.000000 115.213554 8 8 4
145.000000 -34.000000 115.213554 10 9 5
146.000000 -34.000000 115.568054 38 25 11
147.000000 -34.000000 115.568054 75 44 14
148.000000 -34.000000 115.213554 82 48 14
149.000000 -34.000000 114.504547 81 47 13
150.000000 -34.000000 114.504547 80 46 11
151.000000 -34.000000 39.704365 80 45 14
152.000000 -34.000000 39.704365 81 46 15
153.000000 -34.000000 40.058868 79 44 13
154.000000 -34.000000 43.958401 77 43 11
155.000000 -34.000000 45.021912 76 43 10
156.000000 -34.000000 45.021912 71 39 9
157.000000 -34.000000 45.021912 69 37 8
158.000000 -34.000000 43.958401 67 37 10
63.000000 -35.000000 153.499908 122 112 92
64.000000 -35.000000 154.208908 85 82 73
65.000000 -35.000000 154.208908 62 63 50
66.000000 -35.000000 154.208908 53 65 52
67.000000 -35.000000 154.917923 47 70 62
68.000000 -35.000000 155.626923 45 74 68
69.000000 -35.000000 156.690430 40 72 66
70.000000 -35.000000 157.399445 39 71 64
71.000000 -35.000000 157.753937 43 76 67
72.000000 -35.000000 158.108444 44 79 71
73.000000 -35.000000 158.817459 45 83 76
74.000000 -35.000000 162.007980 49 90 85
75.000000 -35.000000 162.716995 54 100 97
76.000000 -35.000000 163.071487 58 110 109
77.000000 -35.000000 163.780502 61 118 120
78.000000 -35.000000 164.489502 66 124 127
79.000000 -35.000000 164.489502 69 128 132
80.000000 -35.000000 164.844009 72 131 135
81.000000 -35.000000 165.198517 74 133 139
82.000000 -35.000000 165.198517 75 135 140
83.000000 -35.000000 164.844009 74 134 140
84.000000 -35.000000 164.844009 74 134 139
85.000000 -35.000000 164.844009 74 129 134
86.000000 -35.000000 164.844009 78 114 114
87.000000 -35.000000 165.198517 91 101 98
88.000000 -35.000000 165.198517 95 98 94
89.000000 -35.000000 164.844009 94 96 93
90.000000 -35.000000 164.844009 94 97 94
91.000000 -35.000000 164.489502 95 99 95
92.000000 -35.000000 164.489502 95 99 95
93.000000 -35.000000 164.489502 90 98 93
94.000000 -35.000000 164.489502 81 100 99
95.000000 -35.000000 164.844009 92 115 119
96.000000 -35.000000 165.198517 114 135 138
97.000000 -35.000000 165.553009 141 159 167
98.000000 -35.000000 165.907516 170 185 195
99.000000 -35.000000 165.907516 194 204 218
100.000000 -35.000000 165.907516 210 217 231
101.000000 -35.000000 165.553009 217 223 235
102.000000 -35.000000 165.198517 218 224 236
103.000000 -35.000000 164.844009 213 221 234
104.000000 -35.000000 164.134995 204 212 226
105.000000 -35.000000 162.362488 193 203 218
106.000000 -35.000000 160.235474 186 197 213
107.000000 -35.000000 158.817459 184 192 206
108.000000 -35.000000 158.108444 181 189 200
109.000000 -35.000000 157.044937 175 181 192
110.000000 -35.000000 155.626923 128 127 129
111.000000 -35.000000 154.917923 97 91 82
112.000000 -35.000000 154.563416 93 86 76
113.000000 -35.000000 154.563416 110 105 96
114.000000 -35.000000 154.563416 156 154 149
115.000000 -35.000000 154.917923 164 153 136
116.000000 -35.000000 154.917923 174 149 108
117.000000 -35.000000 154.917923 179 147 98
118.000000 -35.000000 61.683563 178 145 95
119.000000 -35.000000 61.329060 176 143 92
120.000000 -35.000000 61.329060 175 141 91
121.000000 -35.000000 61.683563 173 140 89
122.000000 -35.000000 62.392570 171 138 87
123.000000 -35.000000 64.165085 168 136 86
124.000000 -35.000000 66.292107 167 134 86
125.000000 -35.000000 68.419128 166 132 85
126.000000 -35.000000 68.419128 164 130 81
127.000000 -35.000000 63.456081 162 129 79
128.000000 -35.000000 61.683563 160 127 76
129.000000 -35.000000 62.392570 145 115 68
130.000000 -35.000000 62.392570 82 67 40
131.000000 -35.000000 62.392570 41 36 27
132.000000 -35.000000 62.392570 37 31 27
133.000000 -35.000000 62.038067 33 27 23
134.000000 -35.000000 60.620056 31 25 19
135.000000 -35.000000 59.911049 37 26 14
136.000000 -35.000000 59.202042 52 33 17
137.000000 -35.000000 59.202042 78 54 28
138.000000 -35.000000 113.795540 102 76 43
139.000000 -35.000000 114.150047 91 66 38
140.000000 -35.000000 114.504547 46 32 17
141.000000 -35.000000 114.504547 20 17 8
142.000000 -35.000000 114.859055 17 14 7
143.000000 -35.000000 115.213554 18 14 9
144.000000 -35.000000 115.568054 20 16 11
145.000000 -35.000000 115.922562 18 14 10
146.000000 -35.000000 116.277061 42 27 13
147.000000 -35.000000 116.277061 75 45 15
148.000000 -35.000000 115.922562 81 48 15
149.000000 -35.000000 114.859055 80 46 15
150.000000 -35.000000 42.185886 79 44 13
151.000000 -35.000000 40.058868 79 44 13
152.000000 -35.000000 40.058868 79 45 13
153.000000 -35.000000 41.831383 76 42 12
154.000000 -35.000000 44.667408 73 41 10
155.000000 -35.000000 45.376415 73 40 9
156.000000 -35.000000 45.376415 71 37 8
157.000000 -35.000000 45.021912 68 35 9
158.000000 -35.000000 44.667408 66 35 9
63.000000 -36.000000 153.145401 115 100 74
64.000000 -36.000000 153.499908 83 74 58
65.000000 -36.000000 153.145401 66 61 46
66.000000 -36.000000 153.145401 56 62 48
67.000000 -36.000000 153.499908 49 69 61
68.000000 -36.000000 153.854401 49 80 73
69.000000 -36.000000 154.563416 45 80 73
70.000000 -36.000000 155.626923 44 80 72
71.000000 -36.000000 155.981430 50 86 78
72.000000 -36.000000 157.044937 53 94 89
73.000000 -36.000000 157.753937 54 102 100
74.000000 -36.000000 158.817459 59 113 114
75.000000 -36.000000 160.589966 64 125 128
76.000000 -36.000000 162.362488 68 134 140
77.000000 -36.000000 163.071487 73 142 151
78.000000 -36.000000 163.425995 78 147 158
79.000000 -36.000000 164.134995 80 150 161
80.000000 -36.000000 164.489502 82 154 164
81.000000 -36.000000 164.489502 82 156 168
82.000000 -36.000000 164.489502 83 159 172
83.000000 -36.000000 164.489502 84 160 173
84.000000 -36.000000 164.489502 85 160 173
