ply
		format ascii 1.0
		element vertex 8612
		property float x
		property float y
		property float z
		property uchar red
		property uchar green
		property uchar blue
		end_header
148.000000 -39.000000 92.525345 164 162 131
149.000000 -39.000000 91.816338 161 160 133
150.000000 -39.000000 91.816338 161 158 132
151.000000 -39.000000 91.816338 159 156 131
152.000000 -39.000000 92.879852 158 154 128
153.000000 -39.000000 96.424881 156 152 127
154.000000 -39.000000 99.969917 153 151 126
155.000000 -39.000000 102.096931 151 149 124
156.000000 -39.000000 97.133888 150 148 124
157.000000 -39.000000 95.361374 147 146 122
158.000000 -39.000000 92.525345 140 141 117
63.000000 -40.000000 169.098053 12 12 11
64.000000 -40.000000 169.098053 14 14 11
65.000000 -40.000000 168.743546 14 14 10
66.000000 -40.000000 168.034531 27 25 20
67.000000 -40.000000 166.971024 87 84 80
68.000000 -40.000000 166.616531 126 122 119
69.000000 -40.000000 166.262024 130 126 123
70.000000 -40.000000 130.457199 130 126 123
71.000000 -40.000000 130.457199 131 127 124
72.000000 -40.000000 131.166199 133 129 126
73.000000 -40.000000 131.166199 134 130 127
74.000000 -40.000000 130.457199 136 132 129
75.000000 -40.000000 130.457199 137 133 132
76.000000 -40.000000 129.039185 137 133 132
77.000000 -40.000000 129.039185 138 134 132
78.000000 -40.000000 129.039185 138 134 131
79.000000 -40.000000 129.748184 138 134 131
80.000000 -40.000000 129.748184 140 136 133
81.000000 -40.000000 129.748184 142 138 135
82.000000 -40.000000 129.748184 143 139 136
83.000000 -40.000000 129.748184 143 139 136
84.000000 -40.000000 131.520706 144 140 138
85.000000 -40.000000 134.002228 146 142 140
86.000000 -40.000000 134.002228 146 142 141
87.000000 -40.000000 134.002228 147 143 142
88.000000 -40.000000 133.293213 147 144 142
89.000000 -40.000000 132.584213 148 145 143
90.000000 -40.000000 132.584213 148 146 145
91.000000 -40.000000 132.584213 148 147 148
92.000000 -40.000000 132.229706 148 148 147
93.000000 -40.000000 132.229706 149 148 145
94.000000 -40.000000 134.711227 150 148 145
95.000000 -40.000000 135.774750 152 150 149
96.000000 -40.000000 136.129242 154 151 152
97.000000 -40.000000 136.129242 155 151 152
98.000000 -40.000000 136.129242 155 151 152
99.000000 -40.000000 136.129242 156 152 152
100.000000 -40.000000 136.129242 157 153 152
101.000000 -40.000000 136.129242 157 154 155
102.000000 -40.000000 136.129242 158 155 156
103.000000 -40.000000 136.129242 159 156 157
104.000000 -40.000000 137.547256 160 157 157
105.000000 -40.000000 137.547256 160 159 159
106.000000 -40.000000 137.901764 161 161 161
107.000000 -40.000000 138.256271 161 161 162
108.000000 -40.000000 138.256271 162 162 162
109.000000 -40.000000 137.192749 164 164 164
110.000000 -40.000000 137.192749 165 165 165
111.000000 -40.000000 137.547256 164 164 164
112.000000 -40.000000 137.901764 165 165 165
113.000000 -40.000000 138.256271 165 165 165
114.000000 -40.000000 138.256271 167 166 167
115.000000 -40.000000 138.610764 167 167 169
116.000000 -40.000000 138.610764 168 167 171
117.000000 -40.000000 140.028778 168 167 172
118.000000 -40.000000 141.801300 168 167 171
119.000000 -40.000000 148.536865 168 167 170
120.000000 -40.000000 157.399445 168 167 171
121.000000 -40.000000 157.753937 167 166 170
122.000000 -40.000000 210.220428 166 166 168
123.000000 -40.000000 210.220428 166 166 167
124.000000 -40.000000 210.220428 166 166 168
125.000000 -40.000000 209.865921 167 166 170
126.000000 -40.000000 209.865921 168 167 172
127.000000 -40.000000 209.865921 167 166 171
128.000000 -40.000000 209.865921 165 164 169
129.000000 -40.000000 210.220428 166 165 170
130.000000 -40.000000 211.638443 168 167 173
131.000000 -40.000000 211.992935 168 167 173
132.000000 -40.000000 213.765457 167 166 172
133.000000 -40.000000 215.183472 165 165 169
134.000000 -40.000000 216.246979 163 164 166
135.000000 -40.000000 219.083008 161 163 165
136.000000 -40.000000 219.792007 154 155 157
137.000000 -40.000000 220.501022 146 142 138
138.000000 -40.000000 219.792007 146 139 131
139.000000 -40.000000 219.437515 146 138 130
140.000000 -40.000000 218.373993 146 137 129
141.000000 -40.000000 217.310486 154 147 129
142.000000 -40.000000 216.955978 168 163 137
143.000000 -40.000000 216.601486 170 165 136
144.000000 -40.000000 99.969917 168 164 137
145.000000 -40.000000 97.488396 167 163 136
146.000000 -40.000000 96.424881 167 161 136
147.000000 -40.000000 94.297859 165 160 132
148.000000 -40.000000 93.234352 162 159 129
149.000000 -40.000000 91.816338 160 157 128
150.000000 -40.000000 91.816338 159 155 126
151.000000 -40.000000 91.816338 158 154 126
152.000000 -40.000000 92.879852 155 153 124
153.000000 -40.000000 96.424881 153 151 123
154.000000 -40.000000 99.969917 151 150 124
155.000000 -40.000000 114.504547 149 147 122
156.000000 -40.000000 114.504547 148 146 121
157.000000 -40.000000 95.361374 146 144 120
158.000000 -40.000000 92.525345 140 139 116
63.000000 -41.000000 169.098053 13 12 11
64.000000 -41.000000 169.098053 14 14 11
65.000000 -41.000000 168.743546 13 14 10
66.000000 -41.000000 168.034531 25 25 20
67.000000 -41.000000 166.971024 87 84 80
68.000000 -41.000000 166.616531 126 121 118
69.000000 -41.000000 166.262024 130 125 123
70.000000 -41.000000 130.457199 130 126 123
71.000000 -41.000000 130.457199 131 127 123
72.000000 -41.000000 131.166199 132 128 125
73.000000 -41.000000 131.166199 134 130 128
74.000000 -41.000000 130.457199 136 132 130
75.000000 -41.000000 130.457199 136 132 131
76.000000 -41.000000 129.039185 137 133 132
77.000000 -41.000000 128.684677 137 133 131
78.000000 -41.000000 129.039185 137 133 130
79.000000 -41.000000 130.102692 137 133 130
80.000000 -41.000000 130.102692 140 136 133
81.000000 -41.000000 129.748184 142 137 135
82.000000 -41.000000 129.748184 143 138 135
83.000000 -41.000000 130.811691 143 139 137
84.000000 -41.000000 131.166199 144 140 139
85.000000 -41.000000 131.520706 145 141 141
86.000000 -41.000000 134.002228 146 142 142
87.000000 -41.000000 134.356735 147 143 142
88.000000 -41.000000 134.002228 148 144 143
89.000000 -41.000000 132.584213 148 145 145
90.000000 -41.000000 132.584213 148 146 146
91.000000 -41.000000 131.875214 149 147 147
92.000000 -41.000000 131.520706 149 148 146
93.000000 -41.000000 131.875214 149 148 146
94.000000 -41.000000 134.711227 150 148 146
95.000000 -41.000000 135.420242 152 148 148
96.000000 -41.000000 135.774750 153 149 150
97.000000 -41.000000 135.774750 154 150 151
98.000000 -41.000000 135.774750 154 150 150
99.000000 -41.000000 135.774750 155 151 149
100.000000 -41.000000 135.774750 156 152 150
101.000000 -41.000000 136.129242 157 153 154
102.000000 -41.000000 136.129242 159 155 156
103.000000 -41.000000 136.129242 159 155 156
104.000000 -41.000000 137.192749 159 155 157
105.000000 -41.000000 137.547256 158 157 159
106.000000 -41.000000 137.901764 159 159 160
107.000000 -41.000000 138.256271 160 160 160
108.000000 -41.000000 138.256271 162 162 162
109.000000 -41.000000 137.192749 164 164 164
110.000000 -41.000000 137.192749 165 165 165
111.000000 -41.000000 137.547256 163 163 164
112.000000 -41.000000 137.547256 164 164 164
113.000000 -41.000000 136.838257 165 165 165
114.000000 -41.000000 136.838257 166 166 167
115.000000 -41.000000 136.838257 168 167 170
116.000000 -41.000000 137.547256 168 167 170
117.000000 -41.000000 138.256271 168 167 172
118.000000 -41.000000 140.028778 168 167 171
119.000000 -41.000000 143.928314 167 167 169
120.000000 -41.000000 154.208908 166 166 168
121.000000 -41.000000 157.753937 166 166 168
122.000000 -41.000000 210.220428 166 166 167
123.000000 -41.000000 210.220428 166 166 166
124.000000 -41.000000 210.220428 165 165 166
125.000000 -41.000000 209.865921 166 165 168
126.000000 -41.000000 209.865921 167 166 170
127.000000 -41.000000 209.865921 167 166 171
128.000000 -41.000000 209.865921 165 165 169
129.000000 -41.000000 210.220428 166 165 171
130.000000 -41.000000 211.638443 168 167 175
131.000000 -41.000000 211.992935 167 166 174
132.000000 -41.000000 213.765457 166 165 173
133.000000 -41.000000 214.828964 165 164 170
134.000000 -41.000000 215.892471 164 164 167
135.000000 -41.000000 218.019501 162 162 164
136.000000 -41.000000 219.083008 154 154 155
137.000000 -41.000000 219.083008 146 142 138
138.000000 -41.000000 219.083008 146 138 131
139.000000 -41.000000 218.373993 146 137 129
140.000000 -41.000000 217.310486 144 136 125
141.000000 -41.000000 216.955978 139 131 115
142.000000 -41.000000 216.601486 129 121 100
143.000000 -41.000000 216.601486 126 118 96
144.000000 -41.000000 216.601486 126 119 97
145.000000 -41.000000 99.969917 127 120 98
146.000000 -41.000000 97.488396 128 121 99
147.000000 -41.000000 97.488396 128 122 99
148.000000 -41.000000 112.732033 129 122 99
149.000000 -41.000000 112.732033 129 123 99
150.000000 -41.000000 92.525345 129 122 97
151.000000 -41.000000 92.879852 129 123 99
152.000000 -41.000000 96.070381 129 125 99
153.000000 -41.000000 98.551903 128 125 100
154.000000 -41.000000 116.986069 125 125 100
155.000000 -41.000000 117.340576 125 124 101
156.000000 -41.000000 118.049583 126 124 101
157.000000 -41.000000 118.049583 127 125 103
158.000000 -41.000000 92.879852 123 122 103
63.000000 -42.000000 168.743546 13 12 10
64.000000 -42.000000 168.743546 13 14 11
65.000000 -42.000000 168.743546 14 14 10
66.000000 -42.000000 168.034531 26 25 20
67.000000 -42.000000 166.971024 88 83 80
68.000000 -42.000000 166.616531 127 120 117
69.000000 -42.000000 166.262024 130 124 122
70.000000 -42.000000 130.457199 129 125 122
71.000000 -42.000000 130.457199 130 127 123
72.000000 -42.000000 131.520706 132 129 124
73.000000 -42.000000 131.520706 134 130 128
74.000000 -42.000000 130.457199 136 132 130
75.000000 -42.000000 129.039185 136 132 131
76.000000 -42.000000 127.975670 137 133 131
77.000000 -42.000000 127.975670 137 133 131
78.000000 -42.000000 128.684677 138 134 131
79.000000 -42.000000 130.102692 139 135 132
80.000000 -42.000000 130.102692 140 136 133
81.000000 -42.000000 130.102692 141 136 134
82.000000 -42.000000 130.811691 142 137 134
83.000000 -42.000000 130.811691 143 138 137
84.000000 -42.000000 130.811691 143 139 138
85.000000 -42.000000 130.811691 143 139 138
86.000000 -42.000000 131.520706 145 141 140
87.000000 -42.000000 134.711227 147 141 141
88.000000 -42.000000 134.711227 147 143 142
89.000000 -42.000000 132.584213 147 144 143
90.000000 -42.000000 130.811691 148 144 144
91.000000 -42.000000 130.457199 150 146 146
92.000000 -42.000000 130.457199 150 147 145
93.000000 -42.000000 131.166199 151 147 147
94.000000 -42.000000 134.356735 151 147 148
95.000000 -42.000000 135.065735 150 147 148
96.000000 -42.000000 135.065735 152 149 150
97.000000 -42.000000 135.420242 154 150 151
98.000000 -42.000000 135.420242 154 150 151
99.000000 -42.000000 135.774750 155 151 150
100.000000 -42.000000 135.774750 155 151 151
101.000000 -42.000000 136.129242 155 153 153
102.000000 -42.000000 136.129242 157 154 155
103.000000 -42.000000 136.129242 158 154 155
104.000000 -42.000000 137.192749 158 154 156
105.000000 -42.000000 137.901764 158 156 158
106.000000 -42.000000 138.610764 160 158 160
107.000000 -42.000000 138.610764 159 159 159
108.000000 -42.000000 138.965271 160 160 160
109.000000 -42.000000 137.192749 162 162 162
110.000000 -42.000000 137.192749 163 163 163
111.000000 -42.000000 136.838257 163 162 164
112.000000 -42.000000 136.483749 164 164 166
113.000000 -42.000000 136.129242 165 165 166
114.000000 -42.000000 136.129242 166 166 168
115.000000 -42.000000 136.129242 167 166 173
116.000000 -42.000000 136.838257 167 166 172
117.000000 -42.000000 137.192749 167 167 170
118.000000 -42.000000 137.901764 167 167 169
119.000000 -42.000000 143.928314 167 167 167
120.000000 -42.000000 157.753937 166 166 166
121.000000 -42.000000 158.817459 166 166 167
122.000000 -42.000000 210.220428 166 166 167
123.000000 -42.000000 210.574921 166 165 167
124.000000 -42.000000 211.283936 165 165 166
125.000000 -42.000000 210.929428 166 166 166
126.000000 -42.000000 209.865921 166 166 167
127.000000 -42.000000 209.865921 166 165 168
128.000000 -42.000000 210.220428 165 164 169
129.000000 -42.000000 210.574921 166 165 172
130.000000 -42.000000 211.638443 166 165 173
131.000000 -42.000000 212.347443 164 163 170
132.000000 -42.000000 213.765457 164 164 169
133.000000 -42.000000 214.828964 165 164 168
134.000000 -42.000000 215.892471 164 164 168
135.000000 -42.000000 218.019501 161 160 165
136.000000 -42.000000 218.019501 152 152 154
137.000000 -42.000000 218.019501 144 140 136
138.000000 -42.000000 218.019501 146 137 128
139.000000 -42.000000 217.664993 146 137 127
140.000000 -42.000000 216.955978 144 135 122
141.000000 -42.000000 216.601486 118 107 96
142.000000 -42.000000 216.601486 68 53 45
143.000000 -42.000000 216.601486 57 40 31
144.000000 -42.000000 216.955978 56 40 29
145.000000 -42.000000 216.955978 56 41 29
146.000000 -42.000000 112.732033 56 42 31
147.000000 -42.000000 112.732033 57 43 32
148.000000 -42.000000 135.065735 58 44 34
149.000000 -42.000000 135.774750 59 45 34
150.000000 -42.000000 136.129242 59 45 33
151.000000 -42.000000 139.674271 59 46 34
152.000000 -42.000000 140.737793 60 48 36
153.000000 -42.000000 141.801300 61 50 38
154.000000 -42.000000 142.510300 61 50 38
155.000000 -42.000000 142.864807 60 50 37
156.000000 -42.000000 143.573807 61 52 38
157.000000 -42.000000 143.573807 63 53 42
158.000000 -42.000000 118.404083 63 53 44
63.000000 -43.000000 167.325531 12 13 10
64.000000 -43.000000 168.743546 13 13 11
65.000000 -43.000000 168.034531 15 13 10
66.000000 -43.000000 166.971024 28 25 20
67.000000 -43.000000 166.616531 87 83 79
68.000000 -43.000000 166.262024 125 119 117
69.000000 -43.000000 165.553009 129 124 121
70.000000 -43.000000 129.393677 129 125 122
71.000000 -43.000000 129.393677 130 126 123
72.000000 -43.000000 131.166199 132 129 125
73.000000 -43.000000 131.166199 134 130 127
74.000000 -43.000000 104.223953 135 131 128
75.000000 -43.000000 103.160446 135 131 128
76.000000 -43.000000 103.160446 137 133 130
77.000000 -43.000000 126.912163 137 133 130
78.000000 -43.000000 127.621170 138 134 131
79.000000 -43.000000 130.102692 139 135 132
80.000000 -43.000000 130.102692 139 135 132
81.000000 -43.000000 130.811691 139 135 132
82.000000 -43.000000 130.811691 141 137 134
83.000000 -43.000000 130.811691 142 138 136
84.000000 -43.000000 130.811691 143 139 136
85.000000 -43.000000 130.811691 143 139 138
86.000000 -43.000000 130.457199 145 141 140
87.000000 -43.000000 132.938721 146 141 142
88.000000 -43.000000 132.938721 146 143 143
89.000000 -43.000000 130.457199 147 144 143
90.000000 -43.000000 108.477989 148 144 143
91.000000 -43.000000 110.250511 149 145 144
92.000000 -43.000000 123.367126 150 146 145
93.000000 -43.000000 128.684677 151 147 147
94.000000 -43.000000 134.002228 151 147 148
95.000000 -43.000000 134.711227 150 147 148
96.000000 -43.000000 135.065735 152 149 150
97.000000 -43.000000 135.065735 154 150 150
98.000000 -43.000000 135.420242 154 151 150
99.000000 -43.000000 135.420242 153 151 151
100.000000 -43.000000 135.774750 153 151 152
101.000000 -43.000000 136.129242 153 153 152
102.000000 -43.000000 136.129242 154 154 153
103.000000 -43.000000 136.483749 156 154 154
104.000000 -43.000000 137.192749 156 154 154
105.000000 -43.000000 138.610764 159 155 157
106.000000 -43.000000 138.965271 161 158 159
107.000000 -43.000000 143.573807 159 158 159
108.000000 -43.000000 147.473343 159 159 159
109.000000 -43.000000 140.028778 160 160 161
110.000000 -43.000000 136.838257 163 162 164
111.000000 -43.000000 132.938721 163 162 167
112.000000 -43.000000 135.420242 164 163 167
113.000000 -43.000000 135.420242 164 164 167
114.000000 -43.000000 135.774750 165 165 168
115.000000 -43.000000 135.774750 166 165 171
116.000000 -43.000000 136.129242 166 165 170
117.000000 -43.000000 137.192749 165 165 166
118.000000 -43.000000 137.547256 164 164 164
119.000000 -43.000000 202.775848 165 165 165
120.000000 -43.000000 159.171951 166 166 167
121.000000 -43.000000 204.193863 167 166 169
122.000000 -43.000000 210.220428 166 165 169
123.000000 -43.000000 211.638443 166 165 169
124.000000 -43.000000 211.992935 165 165 168
125.000000 -43.000000 211.638443 165 165 166
126.000000 -43.000000 210.929428 165 165 166
127.000000 -43.000000 210.220428 164 164 166
128.000000 -43.000000 210.574921 164 163 167
129.000000 -43.000000 211.283936 164 164 169
130.000000 -43.000000 212.347443 164 163 169
131.000000 -43.000000 213.410950 163 162 167
132.000000 -43.000000 214.119965 163 162 167
133.000000 -43.000000 215.183472 164 163 167
134.000000 -43.000000 215.537979 162 162 165
135.000000 -43.000000 217.310486 159 158 161
136.000000 -43.000000 217.664993 150 149 150
137.000000 -43.000000 217.664993 143 138 133
138.000000 -43.000000 217.664993 145 137 129
139.000000 -43.000000 216.955978 145 136 127
140.000000 -43.000000 216.246979 144 134 125
141.000000 -43.000000 216.246979 117 104 98
142.000000 -43.000000 216.601486 64 44 42
143.000000 -43.000000 216.601486 53 29 25
144.000000 -43.000000 216.955978 51 27 21
145.000000 -43.000000 217.664993 50 27 22
146.000000 -43.000000 219.083008 51 26 24
147.000000 -43.000000 135.774750 49 25 24
148.000000 -43.000000 136.129242 47 24 23
149.000000 -43.000000 136.129242 47 24 22
150.000000 -43.000000 137.901764 46 23 21
151.000000 -43.000000 140.028778 45 23 21
152.000000 -43.000000 141.801300 44 23 23
153.000000 -43.000000 142.510300 43 23 22
154.000000 -43.000000 142.864807 43 22 21
155.000000 -43.000000 143.219315 41 22 18
156.000000 -43.000000 143.573807 40 22 18
157.000000 -43.000000 143.573807 40 21 20
158.000000 -43.000000 143.573807 39 20 20
63.000000 -44.000000 166.616531 12 12 9
64.000000 -44.000000 166.971024 13 12 10
65.000000 -44.000000 166.971024 15 13 10
66.000000 -44.000000 166.616531 28 24 21
67.000000 -44.000000 166.262024 87 83 80
68.000000 -44.000000 165.553009 124 120 117
69.000000 -44.000000 164.844009 128 124 121
70.000000 -44.000000 114.150047 129 125 122
71.000000 -44.000000 114.150047 130 126 125
72.000000 -44.000000 108.832497 132 128 127
73.000000 -44.000000 104.223953 133 129 127
74.000000 -44.000000 103.160446 134 130 127
75.000000 -44.000000 103.160446 134 130 127
76.000000 -44.000000 101.387924 136 132 129
77.000000 -44.000000 103.514946 137 133 130
78.000000 -44.000000 126.912163 137 133 130
79.000000 -44.000000 130.102692 138 134 131
80.000000 -44.000000 131.166199 139 135 132
81.000000 -44.000000 131.166199 139 135 132
82.000000 -44.000000 131.166199 140 136 134
83.000000 -44.000000 131.166199 142 138 136
84.000000 -44.000000 130.811691 142 138 137
85.000000 -44.000000 130.457199 141 139 137
86.000000 -44.000000 130.457199 142 141 139
87.000000 -44.000000 131.520706 143 142 140
88.000000 -44.000000 131.520706 145 143 142
89.000000 -44.000000 107.059982 147 144 144
90.000000 -44.000000 107.059982 147 143 144
91.000000 -44.000000 107.768990 148 144 143
92.000000 -44.000000 108.477989 149 145 143
93.000000 -44.000000 123.367126 150 146 146
94.000000 -44.000000 132.229706 151 147 148
95.000000 -44.000000 134.711227 151 147 148
96.000000 -44.000000 134.711227 152 149 149
97.000000 -44.000000 135.065735 153 149 148
98.000000 -44.000000 135.420242 153 149 148
99.000000 -44.000000 136.129242 152 150 150
100.000000 -44.000000 136.129242 153 151 151
101.000000 -44.000000 136.129242 154 152 151
102.000000 -44.000000 136.129242 155 154 152
103.000000 -44.000000 136.838257 156 154 154
104.000000 -44.000000 137.901764 156 154 154
105.000000 -44.000000 140.383286 158 156 156
106.000000 -44.000000 147.473343 160 158 159
107.000000 -44.000000 148.536865 159 158 159
108.000000 -44.000000 148.536865 159 159 159
109.000000 -44.000000 148.891357 160 160 160
111.000000 -44.000000 131.875214 163 163 165
112.000000 -44.000000 132.938721 163 163 165
113.000000 -44.000000 135.065735 163 163 165
114.000000 -44.000000 135.774750 164 164 167
115.000000 -44.000000 135.774750 165 165 169
116.000000 -44.000000 136.129242 166 165 169
117.000000 -44.000000 137.192749 164 164 165
118.000000 -44.000000 202.775848 163 163 164
119.000000 -44.000000 204.193863 164 164 167
120.000000 -44.000000 204.193863 166 165 169
121.000000 -44.000000 204.902878 166 165 170
122.000000 -44.000000 209.865921 165 164 169
123.000000 -44.000000 212.347443 165 164 169
124.000000 -44.000000 212.347443 164 164 167
125.000000 -44.000000 212.347443 165 164 165
126.000000 -44.000000 211.283936 164 164 165
127.000000 -44.000000 211.283936 164 163 166
128.000000 -44.000000 210.929428 163 163 165
129.000000 -44.000000 211.992935 164 163 166
130.000000 -44.000000 213.056442 164 163 166
131.000000 -44.000000 213.410950 162 161 165
132.000000 -44.000000 214.474457 161 160 165
133.000000 -44.000000 215.183472 162 161 166
134.000000 -44.000000 215.537979 161 160 163
135.000000 -44.000000 216.955978 159 159 159
136.000000 -44.000000 217.310486 151 149 149
137.000000 -44.000000 217.664993 144 138 135
138.000000 -44.000000 217.310486 146 137 131
139.000000 -44.000000 216.601486 145 136 129
140.000000 -44.000000 216.246979 143 134 126
141.000000 -44.000000 216.246979 124 108 101
142.000000 -44.000000 216.246979 91 59 57
143.000000 -44.000000 216.601486 85 46 47
144.000000 -44.000000 216.955978 83 44 46
145.000000 -44.000000 218.019501 81 43 45
146.000000 -44.000000 219.083008 81 43 45
147.000000 -44.000000 136.129242 79 41 45
148.000000 -44.000000 136.129242 76 40 44
149.000000 -44.000000 136.838257 75 40 44
150.000000 -44.000000 137.901764 74 38 44
151.000000 -44.000000 139.674271 72 37 43
152.000000 -44.000000 141.801300 69 37 43
153.000000 -44.000000 142.510300 67 36 41
154.000000 -44.000000 142.864807 65 34 39
155.000000 -44.000000 143.219315 63 33 37
156.000000 -44.000000 143.573807 60 32 35
157.000000 -44.000000 143.573807 58 30 33
158.000000 -44.000000 143.573807 57 28 31
63.000000 -45.000000 166.616531 12 10 8
64.000000 -45.000000 166.616531 14 10 9
65.000000 -45.000000 166.616531 16 12 10
66.000000 -45.000000 166.262024 28 24 21
67.000000 -45.000000 165.553009 87 83 80
68.000000 -45.000000 165.553009 124 119 117
69.000000 -45.000000 164.844009 128 124 121
70.000000 -45.000000 113.795540 129 125 122
71.000000 -45.000000 111.314018 130 126 123
72.000000 -45.000000 106.705475 131 128 125
73.000000 -45.000000 104.223953 133 129 126
74.000000 -45.000000 104.223953 133 129 126
75.000000 -45.000000 104.223953 134 130 126
76.000000 -45.000000 103.514946 135 131 128
77.000000 -45.000000 108.123489 137 132 130
78.000000 -45.000000 126.912163 138 133 131
79.000000 -45.000000 131.166199 138 134 132
80.000000 -45.000000 131.166199 139 135 133
81.000000 -45.000000 131.166199 139 135 133
82.000000 -45.000000 131.166199 140 136 134
83.000000 -45.000000 131.166199 141 137 135
84.000000 -45.000000 131.166199 141 138 137
85.000000 -45.000000 130.811691 142 140 137
86.000000 -45.000000 130.811691 142 140 136
87.000000 -45.000000 131.520706 142 142 138
88.000000 -45.000000 131.520706 143 143 139
89.000000 -45.000000 106.350975 145 143 142
90.000000 -45.000000 106.705475 146 142 143
91.000000 -45.000000 107.059982 148 144 143
92.000000 -45.000000 107.059982 148 145 144
93.000000 -45.000000 107.768990 148 146 146
94.000000 -45.000000 131.520706 149 147 147
95.000000 -45.000000 134.711227 151 147 148
96.000000 -45.000000 135.065735 152 148 149
97.000000 -45.000000 135.065735 152 148 147
98.000000 -45.000000 135.420242 153 149 148
99.000000 -45.000000 135.774750 153 149 150
100.000000 -45.000000 135.774750 154 150 152
101.000000 -45.000000 135.774750 155 151 151
102.000000 -45.000000 136.129242 156 152 152
103.000000 -45.000000 136.129242 157 153 154
104.000000 -45.000000 137.901764 157 153 154
105.000000 -45.000000 147.473343 156 155 155
106.000000 -45.000000 147.827850 157 157 157
107.000000 -45.000000 148.891357 159 158 158
108.000000 -45.000000 147.827850 160 158 159
109.000000 -45.000000 148.891357 159 159 159
110.000000 -45.000000 130.457199 161 161 161
111.000000 -45.000000 131.875214 162 162 162
112.000000 -45.000000 132.584213 163 163 163
113.000000 -45.000000 135.065735 163 163 163
114.000000 -45.000000 136.129242 164 163 165
115.000000 -45.000000 136.129242 164 163 167
116.000000 -45.000000 136.483749 164 164 167
117.000000 -45.000000 137.547256 164 163 166
118.000000 -45.000000 203.839371 163 163 165
119.000000 -45.000000 204.548370 163 163 167
120.000000 -45.000000 204.902878 165 164 169
121.000000 -45.000000 205.611877 165 164 169
122.000000 -45.000000 209.511414 164 163 168
123.000000 -45.000000 210.574921 164 163 168
124.000000 -45.000000 212.347443 164 163 166
125.000000 -45.000000 212.347443 163 163 164
126.000000 -45.000000 210.929428 163 163 164
127.000000 -45.000000 211.283936 163 163 164
128.000000 -45.000000 211.638443 162 162 163
129.000000 -45.000000 213.056442 163 163 163
130.000000 -45.000000 213.410950 163 163 164
131.000000 -45.000000 213.410950 161 161 164
132.000000 -45.000000 214.474457 161 160 164
133.000000 -45.000000 215.183472 161 160 165
134.000000 -45.000000 215.537979 160 159 163
135.000000 -45.000000 216.955978 159 158 161
136.000000 -45.000000 217.310486 153 150 151
137.000000 -45.000000 217.310486 146 138 134
138.000000 -45.000000 216.955978 147 136 129
139.000000 -45.000000 216.601486 146 135 128
140.000000 -45.000000 215.892471 143 133 125
141.000000 -45.000000 215.892471 131 109 103
142.000000 -45.000000 216.246979 112 67 68
143.000000 -45.000000 216.601486 109 56 62
144.000000 -45.000000 216.955978 107 55 63
145.000000 -45.000000 216.955978 105 54 62
146.000000 -45.000000 131.166199 103 54 60
147.000000 -45.000000 131.166199 102 53 61
148.000000 -45.000000 136.129242 101 52 61
149.000000 -45.000000 137.547256 99 50 59
150.000000 -45.000000 138.610764 98 51 60
151.000000 -45.000000 139.674271 96 51 60
152.000000 -45.000000 141.446793 94 51 59
153.000000 -45.000000 142.510300 93 49 58
154.000000 -45.000000 142.864807 91 48 57
155.000000 -45.000000 143.219315 89 46 55
156.000000 -45.000000 143.219315 86 45 51
157.000000 -45.000000 143.219315 84 43 49
158.000000 -45.000000 143.219315 81 42 48
63.000000 -46.000000 166.616531 12 10 6
64.000000 -46.000000 166.616531 14 10 7
65.000000 -46.000000 166.262024 16 12 9
66.000000 -46.000000 166.262024 28 24 21
67.000000 -46.000000 165.553009 86 81 79
68.000000 -46.000000 165.553009 125 119 117
69.000000 -46.000000 165.198517 128 123 120
70.000000 -46.000000 111.314018 129 125 122
71.000000 -46.000000 107.414482 130 126 123
74.000000 -46.000000 104.932961 133 129 125
75.000000 -46.000000 107.059982 134 130 126
76.000000 -46.000000 108.123489 135 131 129
77.000000 -46.000000 111.314018 136 131 130
78.000000 -46.000000 131.166199 138 132 132
79.000000 -46.000000 131.875214 138 133 133
80.000000 -46.000000 131.875214 138 134 134
81.000000 -46.000000 131.875214 139 135 133
82.000000 -46.000000 131.520706 140 137 134
83.000000 -46.000000 131.520706 140 138 136
84.000000 -46.000000 131.520706 141 139 137
85.000000 -46.000000 131.166199 142 139 137
86.000000 -46.000000 131.520706 143 140 136
87.000000 -46.000000 131.520706 143 141 137
88.000000 -46.000000 131.520706 143 142 138
89.000000 -46.000000 106.705475 144 141 139
90.000000 -46.000000 107.059982 145 142 140
91.000000 -46.000000 107.059982 146 144 142
92.000000 -46.000000 107.059982 147 145 143
93.000000 -46.000000 107.414482 147 146 144
94.000000 -46.000000 108.123489 148 147 146
95.000000 -46.000000 134.711227 150 147 147
96.000000 -46.000000 135.065735 151 147 147
97.000000 -46.000000 135.420242 152 148 146
98.000000 -46.000000 135.774750 153 149 147
99.000000 -46.000000 135.774750 153 149 151
100.000000 -46.000000 135.774750 154 150 153
101.000000 -46.000000 135.774750 154 151 153
102.000000 -46.000000 135.774750 155 152 154
103.000000 -46.000000 136.129242 156 153 154
104.000000 -46.000000 136.838257 157 153 154
105.000000 -46.000000 137.901764 155 155 155
106.000000 -46.000000 147.827850 156 156 156
107.000000 -46.000000 147.827850 158 157 156
108.000000 -46.000000 131.875214 159 158 157
109.000000 -46.000000 131.875214 159 158 158
110.000000 -46.000000 131.875214 159 159 159
111.000000 -46.000000 133.293213 161 161 159
112.000000 -46.000000 135.065735 162 163 161
113.000000 -46.000000 136.129242 163 163 162
114.000000 -46.000000 136.483749 162 162 164
115.000000 -46.000000 136.483749 163 162 166
116.000000 -46.000000 136.483749 163 162 166
117.000000 -46.000000 137.547256 162 162 163
118.000000 -46.000000 203.839371 162 162 163
119.000000 -46.000000 204.902878 163 163 164
120.000000 -46.000000 205.611877 163 163 167
121.000000 -46.000000 206.675385 164 163 168
122.000000 -46.000000 209.511414 163 162 167
123.000000 -46.000000 209.865921 162 161 166
124.000000 -46.000000 209.865921 164 163 167
125.000000 -46.000000 210.929428 163 163 165
126.000000 -46.000000 210.929428 163 163 165
127.000000 -46.000000 210.929428 163 163 165
128.000000 -46.000000 211.638443 162 162 163
129.000000 -46.000000 213.056442 162 162 163
130.000000 -46.000000 213.410950 163 163 163
131.000000 -46.000000 213.410950 162 162 164
132.000000 -46.000000 214.119965 162 161 164
133.000000 -46.000000 214.828964 160 160 163
134.000000 -46.000000 215.183472 159 158 162
135.000000 -46.000000 216.601486 158 157 162
136.000000 -46.000000 217.310486 152 148 150
137.000000 -46.000000 217.310486 144 137 129
138.000000 -46.000000 216.955978 145 135 126
139.000000 -46.000000 216.601486 144 135 125
140.000000 -46.000000 215.537979 143 133 124
141.000000 -46.000000 215.537979 135 109 105
142.000000 -46.000000 216.246979 119 67 71
143.000000 -46.000000 216.246979 116 58 66
144.000000 -46.000000 216.601486 114 57 66
145.000000 -46.000000 129.039185 111 56 66
146.000000 -46.000000 129.039185 108 54 64
147.000000 -46.000000 131.166199 107 54 64
148.000000 -46.000000 136.129242 107 53 63
149.000000 -46.000000 138.256271 107 52 62
150.000000 -46.000000 140.737793 106 52 61
151.000000 -46.000000 141.092285 103 53 60
152.000000 -46.000000 141.092285 102 52 59
153.000000 -46.000000 141.801300 99 51 58
154.000000 -46.000000 142.510300 97 50 59
155.000000 -46.000000 142.864807 96 49 57
156.000000 -46.000000 142.864807 94 47 53
157.000000 -46.000000 143.219315 92 46 51
158.000000 -46.000000 141.801300 89 45 50
63.000000 -47.000000 166.616531 13 11 8
64.000000 -47.000000 166.616531 15 11 10
65.000000 -47.000000 166.262024 17 13 11
66.000000 -47.000000 165.907516 29 25 22
67.000000 -47.000000 165.553009 87 81 79
68.000000 -47.000000 165.553009 126 118 116
69.000000 -47.000000 165.553009 128 122 119
70.000000 -47.000000 109.541504 128 124 121
71.000000 -47.000000 107.414482 129 125 121
72.000000 -47.000000 106.705475 130 126 121
74.000000 -47.000000 107.059982 132 129 124
75.000000 -47.000000 108.123489 133 130 126
76.000000 -47.000000 109.541504 134 130 127
77.000000 -47.000000 134.002228 135 131 129
78.000000 -47.000000 133.647720 136 132 131
79.000000 -47.000000 132.584213 137 133 131
80.000000 -47.000000 131.875214 138 134 131
81.000000 -47.000000 131.875214 139 135 133
82.000000 -47.000000 131.520706 140 136 135
83.000000 -47.000000 131.520706 140 137 137
84.000000 -47.000000 131.520706 141 139 139
85.000000 -47.000000 131.166199 142 139 139
86.000000 -47.000000 130.811691 143 139 137
87.000000 -47.000000 130.811691 144 140 137
88.000000 -47.000000 130.811691 145 141 138
89.000000 -47.000000 109.186996 145 141 138
90.000000 -47.000000 107.768990 145 141 139
91.000000 -47.000000 107.414482 145 143 141
92.000000 -47.000000 107.059982 146 144 143
93.000000 -47.000000 107.768990 147 146 144
94.000000 -47.000000 133.647720 149 147 145
95.000000 -47.000000 135.065735 149 146 146
96.000000 -47.000000 135.420242 150 146 146
97.000000 -47.000000 135.420242 151 147 145
98.000000 -47.000000 135.774750 151 147 146
99.000000 -47.000000 136.129242 152 148 150
100.000000 -47.000000 135.774750 153 149 152
101.000000 -47.000000 135.774750 153 152 152
102.000000 -47.000000 135.774750 153 152 152
103.000000 -47.000000 136.129242 155 152 151
104.000000 -47.000000 136.838257 156 153 152
105.000000 -47.000000 138.610764 155 155 154
106.000000 -47.000000 140.383286 156 156 155
107.000000 -47.000000 137.901764 156 156 155
108.000000 -47.000000 132.229706 157 157 156
109.000000 -47.000000 132.229706 159 157 157
110.000000 -47.000000 133.293213 159 158 158
111.000000 -47.000000 135.420242 160 160 159
112.000000 -47.000000 136.129242 161 161 160
113.000000 -47.000000 136.483749 161 161 162
114.000000 -47.000000 136.838257 161 161 164
115.000000 -47.000000 136.838257 162 162 165
116.000000 -47.000000 137.192749 163 162 165
117.000000 -47.000000 137.901764 162 162 163
118.000000 -47.000000 140.383286 162 162 163
119.000000 -47.000000 204.902878 163 163 166
120.000000 -47.000000 206.675385 163 162 168
121.000000 -47.000000 209.511414 163 162 167
122.000000 -47.000000 209.865921 162 161 166
123.000000 -47.000000 209.865921 162 161 166
124.000000 -47.000000 209.865921 164 163 168
125.000000 -47.000000 210.220428 164 163 168
126.000000 -47.000000 210.929428 164 163 167
127.000000 -47.000000 210.929428 162 162 165
128.000000 -47.000000 212.347443 161 161 163
129.000000 -47.000000 213.410950 162 162 162
130.000000 -47.000000 213.410950 162 162 162
131.000000 -47.000000 213.410950 161 161 164
132.000000 -47.000000 214.119965 162 161 164
133.000000 -47.000000 214.474457 160 160 161
134.000000 -47.000000 215.183472 158 158 160
135.000000 -47.000000 216.601486 156 155 160
136.000000 -47.000000 217.664993 150 146 147
137.000000 -47.000000 217.664993 143 136 126
138.000000 -47.000000 217.310486 143 135 124
139.000000 -47.000000 216.601486 142 134 122
140.000000 -47.000000 215.537979 144 133 119
141.000000 -47.000000 215.537979 136 107 102
142.000000 -47.000000 215.892471 121 67 73
143.000000 -47.000000 216.246979 118 58 67
144.000000 -47.000000 216.246979 116 56 66
145.000000 -47.000000 128.684677 114 55 66
146.000000 -47.000000 119.467590 111 55 65
147.000000 -47.000000 128.684677 110 54 64
148.000000 -47.000000 136.129242 109 53 62
149.000000 -47.000000 140.737793 109 53 61
150.000000 -47.000000 141.446793 107 53 62
151.000000 -47.000000 141.801300 105 52 61
152.000000 -47.000000 141.092285 104 52 60
153.000000 -47.000000 141.092285 102 51 59
154.000000 -47.000000 141.801300 99 51 58
155.000000 -47.000000 141.801300 96 49 55
156.000000 -47.000000 141.801300 95 47 52
157.000000 -47.000000 141.801300 94 47 51
158.000000 -47.000000 141.446793 91 46 48
63.000000 -48.000000 166.616531 14 13 12
64.000000 -48.000000 166.616531 15 13 13
65.000000 -48.000000 166.262024 19 16 15
66.000000 -48.000000 165.553009 32 28 27
67.000000 -48.000000 165.553009 88 82 80
68.000000 -48.000000 165.553009 125 117 115
69.000000 -48.000000 165.553009 127 121 119
70.000000 -48.000000 108.123489 128 124 121
71.000000 -48.000000 108.123489 129 125 121
72.000000 -48.000000 107.768990 129 126 121
73.000000 -48.000000 107.768990 130 127 122
74.000000 -48.000000 108.832497 132 128 124
75.000000 -48.000000 109.541504 132 128 126
76.000000 -48.000000 134.356735 133 129 128
77.000000 -48.000000 134.356735 135 131 129
78.000000 -48.000000 134.356735 135 131 130
79.000000 -48.000000 133.647720 136 132 130
80.000000 -48.000000 132.584213 137 133 130
81.000000 -48.000000 131.875214 138 134 132
82.000000 -48.000000 131.520706 139 135 133
83.000000 -48.000000 131.520706 140 136 135
84.000000 -48.000000 131.520706 142 138 137
85.000000 -48.000000 130.457199 143 139 138
86.000000 -48.000000 130.457199 143 139 138
87.000000 -48.000000 130.811691 144 140 137
88.000000 -48.000000 130.811691 144 140 137
89.000000 -48.000000 130.457199 144 140 137
90.000000 -48.000000 127.621170 145 141 138
91.000000 -48.000000 130.457199 146 142 140
92.000000 -48.000000 133.293213 146 142 141
93.000000 -48.000000 133.647720 147 143 143
94.000000 -48.000000 135.065735 148 145 145
95.000000 -48.000000 135.420242 148 145 146
96.000000 -48.000000 135.774750 148 146 146
97.000000 -48.000000 135.774750 149 146 145
98.000000 -48.000000 135.774750 150 146 145
99.000000 -48.000000 136.129242 151 146 146
100.000000 -48.000000 135.774750 151 149 148
101.000000 -48.000000 135.774750 151 151 150
102.000000 -48.000000 136.129242 152 151 151
103.000000 -48.000000 136.838257 154 150 149
104.000000 -48.000000 137.547256 155 152 150
105.000000 -48.000000 138.610764 154 153 153
106.000000 -48.000000 137.547256 155 155 155
107.000000 -48.000000 132.938721 156 156 155
108.000000 -48.000000 132.584213 156 155 155
109.000000 -48.000000 132.938721 157 156 156
110.000000 -48.000000 135.774750 159 157 158
111.000000 -48.000000 136.483749 159 159 159
112.000000 -48.000000 137.547256 160 160 160
113.000000 -48.000000 137.547256 160 160 162
114.000000 -48.000000 137.547256 161 161 163
115.000000 -48.000000 137.547256 162 162 164
116.000000 -48.000000 137.547256 163 163 165
117.000000 -48.000000 138.610764 163 163 164
118.000000 -48.000000 140.028778 163 162 165
119.000000 -48.000000 140.383286 164 163 167
120.000000 -48.000000 206.675385 163 162 166
121.000000 -48.000000 209.865921 162 162 165
122.000000 -48.000000 210.220428 163 162 165
123.000000 -48.000000 210.220428 163 162 167
124.000000 -48.000000 210.220428 164 163 167
125.000000 -48.000000 210.574921 163 163 166
126.000000 -48.000000 210.929428 163 163 164
127.000000 -48.000000 211.283936 161 161 162
128.000000 -48.000000 212.347443 160 160 161
129.000000 -48.000000 213.410950 162 162 162
130.000000 -48.000000 213.765457 162 162 163
131.000000 -48.000000 213.765457 162 161 164
132.000000 -48.000000 214.119965 161 161 163
133.000000 -48.000000 214.474457 159 159 160
134.000000 -48.000000 215.183472 157 157 159
135.000000 -48.000000 216.601486 156 155 160
136.000000 -48.000000 217.664993 149 146 147
137.000000 -48.000000 217.664993 142 135 128
138.000000 -48.000000 217.310486 142 133 121
139.000000 -48.000000 216.955978 143 133 120
140.000000 -48.000000 215.892471 143 131 118
141.000000 -48.000000 215.892471 132 104 99
142.000000 -48.000000 215.892471 120 66 72
143.000000 -48.000000 216.246979 119 58 68
144.000000 -48.000000 216.246979 118 56 68
145.000000 -48.000000 118.404083 116 54 67
146.000000 -48.000000 118.404083 113 53 66
147.000000 -48.000000 119.467590 112 53 66
148.000000 -48.000000 131.520706 111 53 63
149.000000 -48.000000 139.674271 109 52 62
150.000000 -48.000000 140.737793 106 52 62
151.000000 -48.000000 141.801300 105 52 61
152.000000 -48.000000 141.446793 104 51 60
153.000000 -48.000000 141.092285 103 51 59
154.000000 -48.000000 138.965271 100 51 57
155.000000 -48.000000 138.965271 98 49 55
156.000000 -48.000000 141.446793 95 47 53
157.000000 -48.000000 141.446793 95 47 51
158.000000 -48.000000 140.737793 93 45 48
63.000000 -49.000000 168.034531 19 19 18
64.000000 -49.000000 168.034531 19 18 16
65.000000 -49.000000 166.262024 25 23 23
66.000000 -49.000000 165.553009 42 37 39
67.000000 -49.000000 165.553009 91 86 85
68.000000 -49.000000 165.553009 123 117 115
69.000000 -49.000000 165.553009 126 122 119
70.000000 -49.000000 108.123489 128 124 121
71.000000 -49.000000 108.123489 129 125 123
72.000000 -49.000000 130.811691 129 125 124
73.000000 -49.000000 131.166199 130 126 124
74.000000 -49.000000 131.875214 131 127 124
75.000000 -49.000000 134.356735 131 127 126
76.000000 -49.000000 134.356735 132 128 129
77.000000 -49.000000 134.711227 134 130 130
78.000000 -49.000000 134.356735 135 131 130
79.000000 -49.000000 134.356735 136 132 129
80.000000 -49.000000 132.938721 137 133 130
81.000000 -49.000000 131.875214 138 133 131
82.000000 -49.000000 131.520706 140 135 132
83.000000 -49.000000 131.520706 140 136 135
84.000000 -49.000000 131.166199 141 137 136
85.000000 -49.000000 129.393677 142 138 137
86.000000 -49.000000 128.330170 143 139 138
87.000000 -49.000000 129.393677 143 139 137
88.000000 -49.000000 130.811691 143 139 137
89.000000 -49.000000 130.811691 144 140 138
90.000000 -49.000000 130.811691 144 140 138
91.000000 -49.000000 133.293213 145 141 138
92.000000 -49.000000 133.647720 144 140 138
93.000000 -49.000000 134.711227 145 141 141
94.000000 -49.000000 135.774750 147 143 144
95.000000 -49.000000 136.129242 147 145 145
96.000000 -49.000000 136.129242 149 146 146
97.000000 -49.000000 136.129242 149 145 146
98.000000 -49.000000 135.774750 150 145 146
99.000000 -49.000000 136.129242 151 147 145
100.000000 -49.000000 135.774750 151 149 145
101.000000 -49.000000 136.129242 151 149 146
102.000000 -49.000000 136.129242 150 148 147
103.000000 -49.000000 136.838257 152 148 146
104.000000 -49.000000 138.256271 154 150 147
105.000000 -49.000000 138.610764 154 151 150
106.000000 -49.000000 137.901764 155 153 153
107.000000 -49.000000 137.547256 156 154 155
108.000000 -49.000000 135.774750 156 154 155
109.000000 -49.000000 135.774750 156 156 156
110.000000 -49.000000 136.483749 157 157 157
111.000000 -49.000000 137.547256 158 158 158
112.000000 -49.000000 137.547256 160 160 160
113.000000 -49.000000 137.547256 160 160 160
114.000000 -49.000000 137.547256 160 160 161
115.000000 -49.000000 137.547256 161 161 163
116.000000 -49.000000 137.547256 163 162 164
117.000000 -49.000000 138.610764 163 163 164
118.000000 -49.000000 139.674271 162 162 163
119.000000 -49.000000 140.383286 163 162 166
120.000000 -49.000000 154.208908 162 161 166
121.000000 -49.000000 210.220428 161 161 162
122.000000 -49.000000 210.929428 161 161 162
123.000000 -49.000000 210.220428 162 162 164
124.000000 -49.000000 210.574921 163 162 165
125.000000 -49.000000 210.929428 162 162 164
126.000000 -49.000000 211.283936 161 161 162
127.000000 -49.000000 211.283936 158 158 159
128.000000 -49.000000 212.347443 159 159 159
129.000000 -49.000000 213.765457 161 161 161
130.000000 -49.000000 213.765457 162 162 163
131.000000 -49.000000 214.119965 161 160 163
132.000000 -49.000000 214.474457 159 159 161
133.000000 -49.000000 214.828964 157 157 157
134.000000 -49.000000 215.537979 155 155 155
135.000000 -49.000000 216.955978 155 155 155
136.000000 -49.000000 217.664993 148 145 145
137.000000 -49.000000 217.664993 142 135 129
138.000000 -49.000000 217.310486 143 131 120
139.000000 -49.000000 216.955978 144 132 118
140.000000 -49.000000 215.892471 143 130 117
141.000000 -49.000000 215.892471 133 103 99
142.000000 -49.000000 215.892471 121 64 72
143.000000 -49.000000 216.246979 119 57 67
144.000000 -49.000000 216.246979 117 55 67
145.000000 -49.000000 118.404083 116 54 67
146.000000 -49.000000 118.049583 115 53 65
147.000000 -49.000000 119.113091 113 52 63
148.000000 -49.000000 119.467590 110 52 61
149.000000 -49.000000 138.256271 108 51 61
150.000000 -49.000000 139.319778 107 51 62
151.000000 -49.000000 141.092285 106 51 61
152.000000 -49.000000 141.092285 104 50 59
153.000000 -49.000000 139.674271 103 50 58
154.000000 -49.000000 137.901764 102 50 57
155.000000 -49.000000 137.547256 100 49 56
156.000000 -49.000000 138.965271 98 48 55
157.000000 -49.000000 140.737793 97 47 52
158.000000 -49.000000 140.737793 94 44 47
63.000000 -50.000000 169.098053 27 25 23
64.000000 -50.000000 169.098053 27 26 22
65.000000 -50.000000 166.971024 31 29 26
66.000000 -50.000000 165.553009 44 40 38
67.000000 -50.000000 165.553009 90 87 83
68.000000 -50.000000 165.553009 122 118 115
69.000000 -50.000000 165.198517 126 122 120
70.000000 -50.000000 109.541504 128 124 121
71.000000 -50.000000 109.541504 129 125 123
72.000000 -50.000000 130.811691 129 125 124
73.000000 -50.000000 131.875214 130 126 124
74.000000 -50.000000 134.356735 131 127 124
75.000000 -50.000000 134.711227 132 128 126
76.000000 -50.000000 134.711227 133 129 127
77.000000 -50.000000 135.065735 134 130 128
78.000000 -50.000000 134.711227 135 131 128
79.000000 -50.000000 134.711227 136 132 129
80.000000 -50.000000 134.356735 136 132 129
81.000000 -50.000000 133.293213 138 133 130
82.000000 -50.000000 132.938721 140 134 132
83.000000 -50.000000 131.875214 139 135 135
84.000000 -50.000000 131.166199 140 136 136
85.000000 -50.000000 118.758583 141 137 138
86.000000 -50.000000 114.504547 142 138 138
87.000000 -50.000000 112.732033 142 138 136
88.000000 -50.000000 112.732033 143 139 136
89.000000 -50.000000 130.811691 144 139 137
90.000000 -50.000000 132.584213 144 139 138
91.000000 -50.000000 134.002228 145 141 138
92.000000 -50.000000 134.711227 145 141 138
93.000000 -50.000000 135.774750 146 142 140
94.000000 -50.000000 136.129242 147 143 142
95.000000 -50.000000 136.483749 147 143 142
96.000000 -50.000000 136.483749 149 145 144
97.000000 -50.000000 136.483749 149 145 145
98.000000 -50.000000 136.129242 150 146 147
99.000000 -50.000000 136.129242 151 147 146
100.000000 -50.000000 135.774750 152 148 144
101.000000 -50.000000 136.129242 151 148 144
102.000000 -50.000000 136.129242 149 146 144
103.000000 -50.000000 137.192749 150 147 146
104.000000 -50.000000 138.256271 153 151 149
105.000000 -50.000000 138.610764 154 152 151
106.000000 -50.000000 137.901764 156 154 153
107.000000 -50.000000 137.547256 157 154 154
108.000000 -50.000000 136.483749 157 154 155
109.000000 -50.000000 136.483749 155 155 155
110.000000 -50.000000 136.838257 156 156 156
111.000000 -50.000000 137.547256 158 158 158
112.000000 -50.000000 137.547256 159 159 159
113.000000 -50.000000 137.547256 159 159 159
114.000000 -50.000000 137.901764 159 159 159
115.000000 -50.000000 137.901764 160 160 160
116.000000 -50.000000 137.901764 161 161 161
117.000000 -50.000000 138.610764 162 162 162
118.000000 -50.000000 140.028778 162 162 163
119.000000 -50.000000 142.510300 162 162 165
120.000000 -50.000000 153.145401 162 161 165
121.000000 -50.000000 210.929428 160 160 161
122.000000 -50.000000 210.929428 160 160 161
123.000000 -50.000000 210.929428 161 161 163
124.000000 -50.000000 210.929428 161 161 164
125.000000 -50.000000 210.929428 161 160 165
126.000000 -50.000000 211.283936 160 159 163
127.000000 -50.000000 211.283936 158 158 158
128.000000 -50.000000 212.347443 158 158 158
129.000000 -50.000000 213.765457 159 159 159
130.000000 -50.000000 213.765457 160 160 160
131.000000 -50.000000 214.119965 159 159 161
132.000000 -50.000000 214.828964 159 159 162
133.000000 -50.000000 215.183472 157 157 160
134.000000 -50.000000 215.537979 156 156 157
135.000000 -50.000000 217.310486 156 156 156
136.000000 -50.000000 217.664993 148 146 146
137.000000 -50.000000 217.664993 143 135 131
138.000000 -50.000000 217.310486 143 132 121
139.000000 -50.000000 216.955978 144 131 120
140.000000 -50.000000 215.892471 144 131 119
141.000000 -50.000000 215.537979 136 106 101
142.000000 -50.000000 215.892471 122 64 71
143.000000 -50.000000 215.892471 119 56 65
144.000000 -50.000000 215.892471 118 55 63
145.000000 -50.000000 118.049583 117 54 66
146.000000 -50.000000 117.340576 115 53 64
147.000000 -50.000000 118.049583 113 52 62
148.000000 -50.000000 119.467590 110 51 60
149.000000 -50.000000 138.256271 108 51 60
150.000000 -50.000000 138.965271 108 51 60
151.000000 -50.000000 139.674271 107 50 59
152.000000 -50.000000 139.674271 105 49 58
153.000000 -50.000000 140.028778 104 50 57
154.000000 -50.000000 138.610764 103 50 55
155.000000 -50.000000 137.547256 101 49 55
156.000000 -50.000000 138.965271 100 47 56
157.000000 -50.000000 140.028778 98 46 54
158.000000 -50.000000 140.028778 95 43 49
63.000000 -51.000000 169.098053 34 30 27
64.000000 -51.000000 169.098053 34 31 28
65.000000 -51.000000 166.971024 35 32 30
66.000000 -51.000000 165.553009 45 41 40
67.000000 -51.000000 165.198517 91 88 85
68.000000 -51.000000 165.198517 122 118 115
69.000000 -51.000000 164.844009 126 122 120
70.000000 -51.000000 111.314018 128 124 121
71.000000 -51.000000 111.314018 130 125 122
72.000000 -51.000000 131.166199 130 125 122
73.000000 -51.000000 134.711227 131 126 125
74.000000 -51.000000 134.711227 131 127 126
75.000000 -51.000000 135.065735 132 128 125
76.000000 -51.000000 135.065735 132 128 125
77.000000 -51.000000 135.420242 133 129 127
78.000000 -51.000000 135.420242 135 131 128
79.000000 -51.000000 135.420242 136 132 129
80.000000 -51.000000 135.065735 135 131 128
81.000000 -51.000000 134.356735 136 132 129
82.000000 -51.000000 134.002228 137 133 130
83.000000 -51.000000 131.875214 138 134 132
84.000000 -51.000000 114.504547 139 135 134
