ply
		format ascii 1.0
		element vertex 4241
		property float x
		property float y
		property float z
		property uchar red
		property uchar green
		property uchar blue
		end_header
128.000000 -60.000000 164.134995 105 105 105
129.000000 -60.000000 165.553009 103 103 103
130.000000 -60.000000 165.198517 102 102 102
141.000000 -60.000000 156.335938 88 88 88
142.000000 -60.000000 158.462952 86 86 86
143.000000 -60.000000 160.944473 84 84 84
144.000000 -60.000000 160.944473 81 81 81
145.000000 -60.000000 161.653473 79 79 79
147.000000 -60.000000 112.732033 75 75 75
148.000000 -60.000000 113.441040 73 73 73
149.000000 -60.000000 113.795540 72 72 72
151.000000 -60.000000 173.706589 69 69 69
153.000000 -60.000000 172.643082 65 65 65
156.000000 -60.000000 0.000000 63 63 63
76.000000 -61.000000 203.130356 65 65 65
77.000000 -61.000000 203.484863 65 65 65
78.000000 -61.000000 202.775848 64 64 64
79.000000 -61.000000 201.357849 67 67 67
80.000000 -61.000000 201.357849 79 79 79
81.000000 -61.000000 200.294327 85 85 85
82.000000 -61.000000 199.585327 93 93 93
83.000000 -61.000000 199.939835 92 92 92
84.000000 -61.000000 201.003342 94 94 94
85.000000 -61.000000 202.066849 104 104 104
86.000000 -61.000000 205.257385 110 110 110
87.000000 -61.000000 205.966385 116 116 116
88.000000 -61.000000 206.675385 119 119 119
89.000000 -61.000000 205.966385 122 122 122
90.000000 -61.000000 205.611877 123 123 123
91.000000 -61.000000 206.320892 122 122 122
92.000000 -61.000000 204.902878 122 122 122
93.000000 -61.000000 204.548370 113 113 113
94.000000 -61.000000 204.548370 98 98 98
95.000000 -61.000000 204.193863 99 99 99
96.000000 -61.000000 205.257385 110 110 110
97.000000 -61.000000 205.966385 131 131 131
98.000000 -61.000000 203.839371 142 142 142
99.000000 -61.000000 206.320892 143 143 143
100.000000 -61.000000 206.320892 145 145 145
101.000000 -61.000000 206.675385 145 145 145
102.000000 -61.000000 205.966385 142 142 142
103.000000 -61.000000 205.966385 138 138 138
104.000000 -61.000000 205.966385 139 139 139
105.000000 -61.000000 206.675385 137 137 137
106.000000 -61.000000 206.675385 135 135 135
107.000000 -61.000000 205.966385 134 134 134
108.000000 -61.000000 205.966385 120 120 120
109.000000 -61.000000 206.320892 103 103 103
110.000000 -61.000000 205.966385 97 97 97
111.000000 -61.000000 205.611877 104 104 104
112.000000 -61.000000 204.548370 106 106 106
113.000000 -61.000000 203.130356 104 104 104
114.000000 -61.000000 204.193863 99 99 99
115.000000 -61.000000 202.066849 98 98 98
116.000000 -61.000000 200.648834 99 99 99
117.000000 -61.000000 199.585327 98 98 98
118.000000 -61.000000 199.585327 97 97 97
119.000000 -61.000000 200.294327 99 99 99
128.000000 -61.000000 164.844009 111 111 111
129.000000 -61.000000 166.262024 110 110 110
130.000000 -61.000000 164.489502 109 109 109
133.000000 -61.000000 163.071487 111 111 111
138.000000 -61.000000 163.780502 109 109 109
139.000000 -61.000000 165.907516 108 108 108
142.000000 -61.000000 160.944473 105 105 105
143.000000 -61.000000 162.362488 104 104 104
149.000000 -61.000000 114.859055 96 96 96
151.000000 -61.000000 173.706589 93 93 93
156.000000 -61.000000 0.000000 86 86 86
77.000000 -62.000000 203.484863 76 76 76
78.000000 -62.000000 201.712341 75 75 75
79.000000 -62.000000 200.294327 70 70 70
80.000000 -62.000000 199.939835 72 72 72
81.000000 -62.000000 198.521820 77 77 77
82.000000 -62.000000 198.876328 81 81 81
83.000000 -62.000000 199.585327 87 87 87
84.000000 -62.000000 200.648834 87 87 87
85.000000 -62.000000 201.003342 94 94 94
86.000000 -62.000000 202.775848 103 103 103
87.000000 -62.000000 204.548370 107 107 107
88.000000 -62.000000 205.966385 109 109 109
89.000000 -62.000000 204.902878 112 112 112
90.000000 -62.000000 205.257385 115 115 115
91.000000 -62.000000 206.320892 114 114 114
92.000000 -62.000000 204.902878 114 114 114
93.000000 -62.000000 204.548370 107 107 107
94.000000 -62.000000 204.193863 96 96 96
95.000000 -62.000000 204.193863 94 94 94
96.000000 -62.000000 205.257385 105 105 105
97.000000 -62.000000 205.966385 130 130 130
98.000000 -62.000000 204.193863 137 137 137
99.000000 -62.000000 206.675385 139 139 139
100.000000 -62.000000 206.675385 141 141 141
101.000000 -62.000000 207.029892 141 141 141
102.000000 -62.000000 206.320892 136 136 136
103.000000 -62.000000 205.966385 133 133 133
104.000000 -62.000000 205.966385 136 136 136
105.000000 -62.000000 206.320892 132 132 132
106.000000 -62.000000 205.966385 130 130 130
107.000000 -62.000000 205.257385 127 127 127
108.000000 -62.000000 205.257385 118 118 118
109.000000 -62.000000 205.611877 114 114 114
110.000000 -62.000000 205.257385 113 113 113
111.000000 -62.000000 204.902878 104 104 104
112.000000 -62.000000 203.839371 99 99 99
113.000000 -62.000000 202.775848 100 100 100
114.000000 -62.000000 203.484863 107 107 107
116.000000 -62.000000 199.939835 105 105 105
117.000000 -62.000000 198.521820 85 85 85
118.000000 -62.000000 198.167313 86 86 86
120.000000 -62.000000 175.124603 103 103 103
121.000000 -62.000000 173.352081 105 105 105
122.000000 -62.000000 173.352081 107 107 107
123.000000 -62.000000 172.288574 109 109 109
124.000000 -62.000000 170.161560 110 110 110
125.000000 -62.000000 170.870560 110 110 110
128.000000 -62.000000 165.907516 112 112 112
129.000000 -62.000000 167.325531 111 111 111
130.000000 -62.000000 163.780502 110 110 110
132.000000 -62.000000 162.362488 112 112 112
133.000000 -62.000000 162.716995 113 113 113
138.000000 -62.000000 164.844009 112 112 112
139.000000 -62.000000 166.616531 112 112 112
142.000000 -62.000000 162.007980 111 111 111
151.000000 -62.000000 174.770096 104 104 104
154.000000 -62.000000 174.415604 103 103 103
156.000000 -62.000000 0.000000 100 100 100
68.000000 -63.000000 265.168427 78 78 78
72.000000 -63.000000 239.289688 80 80 80
73.000000 -63.000000 241.771210 81 81 81
78.000000 -63.000000 200.648834 80 80 80
79.000000 -63.000000 198.167313 74 74 74
80.000000 -63.000000 197.812805 68 68 68
81.000000 -63.000000 197.458313 72 72 72
82.000000 -63.000000 198.521820 76 76 76
83.000000 -63.000000 198.876328 78 78 78
84.000000 -63.000000 199.939835 85 85 85
85.000000 -63.000000 200.294327 87 87 87
86.000000 -63.000000 201.712341 91 91 91
87.000000 -63.000000 202.775848 96 96 96
88.000000 -63.000000 204.548370 100 100 100
89.000000 -63.000000 203.484863 106 106 106
90.000000 -63.000000 204.193863 108 108 108
91.000000 -63.000000 205.966385 107 107 107
92.000000 -63.000000 204.548370 106 106 106
93.000000 -63.000000 204.902878 100 100 100
94.000000 -63.000000 204.902878 93 93 93
95.000000 -63.000000 204.548370 90 90 90
96.000000 -63.000000 205.611877 99 99 99
97.000000 -63.000000 205.966385 122 122 122
98.000000 -63.000000 204.548370 131 131 131
99.000000 -63.000000 206.675385 135 135 135
100.000000 -63.000000 206.675385 138 138 138
101.000000 -63.000000 206.675385 138 138 138
102.000000 -63.000000 206.320892 131 131 131
103.000000 -63.000000 206.320892 127 127 127
104.000000 -63.000000 205.966385 130 130 130
105.000000 -63.000000 205.966385 129 129 129
106.000000 -63.000000 205.966385 128 128 128
107.000000 -63.000000 204.902878 124 124 124
108.000000 -63.000000 204.902878 114 114 114
109.000000 -63.000000 205.611877 129 129 129
110.000000 -63.000000 204.902878 136 136 136
111.000000 -63.000000 204.548370 118 118 118
112.000000 -63.000000 203.839371 110 110 110
113.000000 -63.000000 202.421356 111 111 111
114.000000 -63.000000 202.775848 117 117 117
116.000000 -63.000000 198.876328 97 97 97
117.000000 -63.000000 197.103806 77 77 77
118.000000 -63.000000 196.749298 84 84 84
120.000000 -63.000000 173.352081 100 100 100
121.000000 -63.000000 173.706589 101 101 101
122.000000 -63.000000 174.061096 103 103 103
123.000000 -63.000000 173.352081 105 105 105
124.000000 -63.000000 171.934067 107 107 107
125.000000 -63.000000 171.934067 108 108 108
128.000000 -63.000000 166.262024 111 111 111
132.000000 -63.000000 162.362488 111 111 111
133.000000 -63.000000 162.716995 112 112 112
136.000000 -63.000000 61.683563 112 112 112
138.000000 -63.000000 165.907516 111 111 111
139.000000 -63.000000 166.616531 112 112 112
151.000000 -63.000000 175.833603 107 107 107
154.000000 -63.000000 175.124603 106 106 106
156.000000 -63.000000 0.000000 104 104 104
72.000000 -64.000000 239.289688 81 81 81
73.000000 -64.000000 241.771210 81 81 81
79.000000 -64.000000 196.040298 78 78 78
80.000000 -64.000000 196.040298 69 69 69
81.000000 -64.000000 196.040298 64 64 64
82.000000 -64.000000 197.103806 71 71 71
83.000000 -64.000000 197.458313 74 74 74
84.000000 -64.000000 198.876328 79 79 79
85.000000 -64.000000 199.230820 87 87 87
86.000000 -64.000000 201.003342 84 84 84
87.000000 -64.000000 202.066849 83 83 83
88.000000 -64.000000 203.484863 88 88 88
89.000000 -64.000000 202.775848 95 95 95
90.000000 -64.000000 203.130356 97 97 97
91.000000 -64.000000 205.611877 96 96 96
92.000000 -64.000000 204.193863 92 92 92
93.000000 -64.000000 204.548370 88 88 88
94.000000 -64.000000 204.902878 93 93 93
95.000000 -64.000000 204.193863 94 94 94
96.000000 -64.000000 205.257385 93 93 93
97.000000 -64.000000 205.611877 107 107 107
98.000000 -64.000000 204.548370 121 121 121
99.000000 -64.000000 206.675385 130 130 130
100.000000 -64.000000 206.320892 133 133 133
101.000000 -64.000000 206.320892 132 132 132
102.000000 -64.000000 206.320892 126 126 126
103.000000 -64.000000 206.320892 121 121 121
104.000000 -64.000000 205.966385 125 125 125
105.000000 -64.000000 205.611877 126 126 126
106.000000 -64.000000 205.611877 122 122 122
107.000000 -64.000000 204.548370 113 113 113
108.000000 -64.000000 204.193863 113 113 113
109.000000 -64.000000 204.902878 132 132 132
110.000000 -64.000000 204.193863 128 128 128
111.000000 -64.000000 203.839371 112 112 112
112.000000 -64.000000 203.484863 106 106 106
113.000000 -64.000000 202.066849 107 107 107
114.000000 -64.000000 201.712341 106 106 106
115.000000 -64.000000 198.167313 99 99 99
116.000000 -64.000000 197.812805 85 85 85
117.000000 -64.000000 196.394791 75 75 75
118.000000 -64.000000 196.394791 88 88 88
119.000000 -64.000000 174.415604 97 97 97
120.000000 -64.000000 173.352081 100 100 100
121.000000 -64.000000 174.061096 101 101 101
122.000000 -64.000000 174.415604 103 103 103
123.000000 -64.000000 173.706589 104 104 104
124.000000 -64.000000 172.288574 104 104 104
125.000000 -64.000000 172.288574 106 106 106
126.000000 -64.000000 172.288574 109 109 109
128.000000 -64.000000 167.325531 111 111 111
132.000000 -64.000000 162.362488 111 111 111
133.000000 -64.000000 162.716995 111 111 111
136.000000 -64.000000 61.329060 110 110 110
137.000000 -64.000000 64.874092 110 110 110
141.000000 -64.000000 134.356735 112 112 112
142.000000 -64.000000 136.838257 114 114 114
143.000000 -64.000000 140.028778 114 114 114
146.000000 -64.000000 143.219315 110 110 110
147.000000 -64.000000 143.573807 109 109 109
150.000000 -64.000000 175.833603 108 108 108
151.000000 -64.000000 176.542618 108 108 108
152.000000 -64.000000 175.124603 107 107 107
153.000000 -64.000000 174.770096 106 106 106
154.000000 -64.000000 175.479111 106 106 106
156.000000 -64.000000 0.000000 104 104 104
79.000000 -65.000000 194.622284 79 79 79
80.000000 -65.000000 194.267776 71 71 71
81.000000 -65.000000 194.976791 62 62 62
82.000000 -65.000000 196.040298 65 65 65
83.000000 -65.000000 196.749298 72 72 72
84.000000 -65.000000 197.458313 78 78 78
85.000000 -65.000000 197.812805 88 88 88
86.000000 -65.000000 199.939835 91 91 91
87.000000 -65.000000 201.357849 79 79 79
88.000000 -65.000000 202.421356 75 75 75
89.000000 -65.000000 202.066849 79 79 79
90.000000 -65.000000 202.421356 83 83 83
91.000000 -65.000000 204.902878 86 86 86
92.000000 -65.000000 203.839371 90 90 90
93.000000 -65.000000 204.193863 98 98 98
94.000000 -65.000000 204.902878 116 116 116
95.000000 -65.000000 204.193863 120 120 120
96.000000 -65.000000 204.902878 98 98 98
97.000000 -65.000000 205.611877 94 94 94
98.000000 -65.000000 204.548370 110 110 110
99.000000 -65.000000 206.320892 123 123 123
100.000000 -65.000000 206.320892 127 127 127
101.000000 -65.000000 206.320892 127 127 127
102.000000 -65.000000 206.320892 124 124 124
103.000000 -65.000000 206.320892 120 120 120
104.000000 -65.000000 205.966385 123 123 123
105.000000 -65.000000 205.611877 122 122 122
106.000000 -65.000000 205.257385 110 110 110
107.000000 -65.000000 204.193863 103 103 103
108.000000 -65.000000 203.839371 112 112 112
109.000000 -65.000000 204.548370 117 117 117
110.000000 -65.000000 204.193863 112 112 112
111.000000 -65.000000 203.484863 103 103 103
112.000000 -65.000000 203.130356 99 99 99
113.000000 -65.000000 201.712341 98 98 98
114.000000 -65.000000 200.648834 94 94 94
115.000000 -65.000000 197.458313 89 89 89
116.000000 -65.000000 197.458313 81 81 81
117.000000 -65.000000 196.394791 82 82 82
118.000000 -65.000000 196.394791 95 95 95
119.000000 -65.000000 173.706589 101 101 101
120.000000 -65.000000 173.352081 105 105 105
121.000000 -65.000000 174.415604 108 108 108
122.000000 -65.000000 175.124603 109 109 109
123.000000 -65.000000 174.415604 108 108 108
124.000000 -65.000000 172.997589 107 107 107
125.000000 -65.000000 172.997589 109 109 109
126.000000 -65.000000 173.352081 112 112 112
130.000000 -65.000000 80.117737 113 113 113
133.000000 -65.000000 162.716995 113 113 113
138.000000 -65.000000 169.452545 112 112 112
142.000000 -65.000000 136.838257 114 114 114
145.000000 -65.000000 143.573807 112 112 112
146.000000 -65.000000 142.155807 111 111 111
147.000000 -65.000000 143.928314 110 110 110
149.000000 -65.000000 174.061096 108 108 108
150.000000 -65.000000 175.479111 108 108 108
151.000000 -65.000000 176.897125 108 108 108
152.000000 -65.000000 176.897125 107 107 107
153.000000 -65.000000 176.542618 106 106 106
155.000000 -65.000000 0.000000 104 104 104
156.000000 -65.000000 0.000000 103 103 103
71.000000 -66.000000 174.415604 73 73 73
72.000000 -66.000000 175.833603 74 74 74
73.000000 -66.000000 177.960632 74 74 74
74.000000 -66.000000 178.315125 74 74 74
80.000000 -66.000000 192.495255 66 66 66
81.000000 -66.000000 193.913269 59 59 59
82.000000 -66.000000 195.331284 59 59 59
83.000000 -66.000000 196.040298 66 66 66
84.000000 -66.000000 196.749298 74 74 74
85.000000 -66.000000 196.749298 78 78 78
86.000000 -66.000000 198.876328 83 83 83
87.000000 -66.000000 200.648834 81 81 81
88.000000 -66.000000 201.712341 78 78 78
89.000000 -66.000000 201.357849 82 82 82
90.000000 -66.000000 201.712341 88 88 88
91.000000 -66.000000 204.193863 97 97 97
92.000000 -66.000000 203.484863 106 106 106
93.000000 -66.000000 203.839371 109 109 109
94.000000 -66.000000 204.548370 113 113 113
95.000000 -66.000000 204.193863 115 115 115
96.000000 -66.000000 204.548370 105 105 105
97.000000 -66.000000 205.257385 90 90 90
98.000000 -66.000000 204.548370 91 91 91
99.000000 -66.000000 205.966385 106 106 106
100.000000 -66.000000 205.966385 117 117 117
101.000000 -66.000000 205.966385 120 120 120
102.000000 -66.000000 206.320892 121 121 121
103.000000 -66.000000 205.966385 118 118 118
104.000000 -66.000000 205.966385 117 117 117
105.000000 -66.000000 204.902878 109 109 109
106.000000 -66.000000 204.902878 98 98 98
107.000000 -66.000000 204.193863 99 99 99
108.000000 -66.000000 203.839371 98 98 98
109.000000 -66.000000 204.193863 98 98 98
110.000000 -66.000000 204.193863 100 100 100
111.000000 -66.000000 203.130356 97 97 97
112.000000 -66.000000 203.130356 92 92 92
113.000000 -66.000000 201.712341 88 88 88
114.000000 -66.000000 197.103806 86 86 86
115.000000 -66.000000 196.040298 83 83 83
116.000000 -66.000000 196.394791 81 81 81
117.000000 -66.000000 195.331284 88 88 88
119.000000 -66.000000 173.706589 101 101 101
120.000000 -66.000000 173.706589 107 107 107
121.000000 -66.000000 175.479111 112 112 112
122.000000 -66.000000 176.542618 113 113 113
123.000000 -66.000000 175.833603 112 112 112
124.000000 -66.000000 174.061096 112 112 112
125.000000 -66.000000 173.706589 114 114 114
126.000000 -66.000000 174.770096 117 117 117
129.000000 -66.000000 78.699722 118 118 118
130.000000 -66.000000 79.054222 118 118 118
131.000000 -66.000000 80.826736 118 118 118
138.000000 -66.000000 173.352081 117 117 117
139.000000 -66.000000 175.124603 116 116 116
143.000000 -66.000000 137.547256 114 114 114
144.000000 -66.000000 138.965271 113 113 113
145.000000 -66.000000 142.510300 114 114 114
146.000000 -66.000000 142.864807 114 114 114
147.000000 -66.000000 144.637329 113 113 113
150.000000 -66.000000 175.833603 112 112 112
152.000000 -66.000000 181.860168 110 110 110
155.000000 -66.000000 0.000000 106 106 106
156.000000 -66.000000 0.000000 105 105 105
71.000000 -67.000000 175.124603 70 70 70
72.000000 -67.000000 175.833603 70 70 70
73.000000 -67.000000 177.606125 70 70 70
74.000000 -67.000000 178.315125 68 68 68
75.000000 -67.000000 178.669632 68 68 68
76.000000 -67.000000 183.278183 68 68 68
77.000000 -67.000000 187.886719 68 68 68
79.000000 -67.000000 191.431747 62 62 62
80.000000 -67.000000 191.431747 55 55 55
81.000000 -67.000000 192.495255 50 50 50
82.000000 -67.000000 193.913269 50 50 50
85.000000 -67.000000 196.749298 69 69 69
87.000000 -67.000000 200.648834 72 72 72
88.000000 -67.000000 201.357849 75 75 75
89.000000 -67.000000 201.003342 80 80 80
90.000000 -67.000000 201.357849 83 83 83
91.000000 -67.000000 202.775848 90 90 90
92.000000 -67.000000 203.130356 99 99 99
93.000000 -67.000000 203.484863 101 101 101
94.000000 -67.000000 204.193863 102 102 102
95.000000 -67.000000 203.839371 102 102 102
96.000000 -67.000000 203.839371 94 94 94
97.000000 -67.000000 204.902878 88 88 88
98.000000 -67.000000 204.548370 84 84 84
99.000000 -67.000000 205.966385 91 91 91
100.000000 -67.000000 205.966385 98 98 98
101.000000 -67.000000 205.611877 103 103 103
102.000000 -67.000000 205.966385 106 106 106
103.000000 -67.000000 205.966385 104 104 104
104.000000 -67.000000 205.611877 98 98 98
105.000000 -67.000000 204.548370 94 94 94
106.000000 -67.000000 204.548370 94 94 94
107.000000 -67.000000 203.839371 92 92 92
108.000000 -67.000000 203.484863 89 89 89
109.000000 -67.000000 203.839371 88 88 88
110.000000 -67.000000 203.484863 90 90 90
111.000000 -67.000000 202.775848 88 88 88
113.000000 -67.000000 194.622284 81 81 81
114.000000 -67.000000 193.913269 79 79 79
115.000000 -67.000000 194.267776 78 78 78
116.000000 -67.000000 194.622284 82 82 82
117.000000 -67.000000 193.558777 87 87 87
119.000000 -67.000000 173.706589 96 96 96
120.000000 -67.000000 174.061096 102 102 102
121.000000 -67.000000 176.897125 105 105 105
122.000000 -67.000000 177.606125 107 107 107
123.000000 -67.000000 176.542618 108 108 108
124.000000 -67.000000 174.415604 111 111 111
125.000000 -67.000000 174.415604 113 113 113
126.000000 -67.000000 175.833603 116 116 116
129.000000 -67.000000 77.990715 118 118 118
130.000000 -67.000000 77.281708 119 119 119
131.000000 -67.000000 79.054222 120 120 120
134.000000 -67.000000 52.820984 121 121 121
138.000000 -67.000000 174.415604 121 121 121
139.000000 -67.000000 177.606125 121 121 121
144.000000 -67.000000 138.965271 118 118 118
145.000000 -67.000000 143.573807 118 118 118
146.000000 -67.000000 144.282822 118 118 118
147.000000 -67.000000 147.118851 117 117 117
151.000000 -67.000000 182.569168 116 116 116
152.000000 -67.000000 184.341690 115 115 115
153.000000 -67.000000 185.405197 114 114 114
154.000000 -67.000000 188.595718 112 112 112
155.000000 -67.000000 0.000000 111 111 111
156.000000 -67.000000 0.000000 110 110 110
72.000000 -68.000000 176.897125 69 69 69
73.000000 -68.000000 177.960632 70 70 70
74.000000 -68.000000 178.669632 69 69 69
75.000000 -68.000000 178.669632 68 68 68
76.000000 -68.000000 182.569168 68 68 68
77.000000 -68.000000 185.405197 68 68 68
78.000000 -68.000000 190.368240 65 65 65
79.000000 -68.000000 190.722748 59 59 59
80.000000 -68.000000 190.722748 51 51 51
81.000000 -68.000000 191.431747 46 46 46
82.000000 -68.000000 192.140762 45 45 45
87.000000 -68.000000 200.294327 62 62 62
88.000000 -68.000000 201.357849 70 70 70
89.000000 -68.000000 201.357849 76 76 76
90.000000 -68.000000 201.712341 80 80 80
91.000000 -68.000000 203.130356 85 85 85
92.000000 -68.000000 203.130356 93 93 93
93.000000 -68.000000 203.839371 95 95 95
94.000000 -68.000000 204.548370 98 98 98
95.000000 -68.000000 204.193863 98 98 98
96.000000 -68.000000 203.839371 93 93 93
97.000000 -68.000000 204.548370 86 86 86
98.000000 -68.000000 203.839371 85 85 85
99.000000 -68.000000 205.611877 86 86 86
100.000000 -68.000000 205.611877 81 81 81
101.000000 -68.000000 204.548370 78 78 78
102.000000 -68.000000 204.902878 82 82 82
103.000000 -68.000000 205.257385 84 84 84
104.000000 -68.000000 204.548370 87 87 87
105.000000 -68.000000 203.484863 88 88 88
106.000000 -68.000000 203.130356 87 87 87
107.000000 -68.000000 202.775848 89 89 89
108.000000 -68.000000 202.775848 89 89 89
109.000000 -68.000000 203.130356 83 83 83
110.000000 -68.000000 202.775848 82 82 82
112.000000 -68.000000 190.368240 78 78 78
113.000000 -68.000000 191.786255 76 76 76
114.000000 -68.000000 192.140762 73 73 73
115.000000 -68.000000 192.849762 78 78 78
116.000000 -68.000000 192.495255 84 84 84
118.000000 -68.000000 357.339264 90 90 90
119.000000 -68.000000 173.706589 96 96 96
120.000000 -68.000000 175.479111 101 101 101
121.000000 -68.000000 178.315125 102 102 102
122.000000 -68.000000 179.024139 104 104 104
123.000000 -68.000000 177.606125 108 108 108
124.000000 -68.000000 175.479111 112 112 112
125.000000 -68.000000 175.833603 114 114 114
128.000000 -68.000000 77.281708 115 115 115
129.000000 -68.000000 77.281708 116 116 116
130.000000 -68.000000 76.572701 116 116 116
138.000000 -68.000000 176.897125 119 119 119
146.000000 -68.000000 144.637329 119 119 119
147.000000 -68.000000 149.245865 119 119 119
151.000000 -68.000000 183.987183 119 119 119
152.000000 -68.000000 185.050690 119 119 119
153.000000 -68.000000 186.114197 120 120 120
154.000000 -68.000000 188.950226 119 119 119
155.000000 -68.000000 0.000000 117 117 117
156.000000 -68.000000 0.000000 116 116 116
73.000000 -69.000000 179.733139 72 72 72
74.000000 -69.000000 183.632675 71 71 71
75.000000 -69.000000 180.442154 70 70 70
76.000000 -69.000000 182.569168 69 69 69
77.000000 -69.000000 184.696198 67 67 67
78.000000 -69.000000 188.595718 65 65 65
79.000000 -69.000000 189.659241 60 60 60
80.000000 -69.000000 189.659241 53 53 53
81.000000 -69.000000 189.304733 47 47 47
87.000000 -69.000000 201.003342 50 50 50
88.000000 -69.000000 202.066849 62 62 62
89.000000 -69.000000 203.130356 72 72 72
90.000000 -69.000000 202.775848 76 76 76
91.000000 -69.000000 205.257385 81 81 81
92.000000 -69.000000 203.839371 86 86 86
93.000000 -69.000000 203.484863 88 88 88
94.000000 -69.000000 204.902878 91 91 91
95.000000 -69.000000 204.193863 92 92 92
96.000000 -69.000000 203.484863 89 89 89
97.000000 -69.000000 203.839371 88 88 88
98.000000 -69.000000 203.484863 86 86 86
99.000000 -69.000000 204.548370 83 83 83
100.000000 -69.000000 204.902878 77 77 77
101.000000 -69.000000 202.775848 75 75 75
102.000000 -69.000000 203.484863 77 77 77
103.000000 -69.000000 203.839371 80 80 80
104.000000 -69.000000 203.484863 82 82 82
105.000000 -69.000000 203.130356 78 78 78
106.000000 -69.000000 202.421356 81 81 81
107.000000 -69.000000 202.066849 85 85 85
108.000000 -69.000000 202.066849 84 84 84
110.000000 -69.000000 187.886719 77 77 77
111.000000 -69.000000 188.595718 75 75 75
112.000000 -69.000000 190.013733 74 74 74
113.000000 -69.000000 190.722748 73 73 73
114.000000 -69.000000 191.431747 74 74 74
115.000000 -69.000000 191.431747 80 80 80
116.000000 -69.000000 191.077255 84 84 84
118.000000 -69.000000 357.339264 89 89 89
119.000000 -69.000000 174.061096 97 97 97
120.000000 -69.000000 177.251617 102 102 102
121.000000 -69.000000 181.151154 103 103 103
122.000000 -69.000000 185.050690 105 105 105
127.000000 -69.000000 189.659241 116 116 116
133.000000 -69.000000 192.849762 116 116 116
134.000000 -69.000000 194.976791 116 116 116
141.000000 -69.000000 121.240112 115 115 115
146.000000 -69.000000 144.282822 114 114 114
147.000000 -69.000000 147.118851 114 114 114
151.000000 -69.000000 182.569168 114 114 114
152.000000 -69.000000 184.341690 114 114 114
153.000000 -69.000000 185.405197 115 115 115
155.000000 -69.000000 0.000000 114 114 114
156.000000 -69.000000 0.000000 113 113 113
66.000000 -70.000000 185.759705 70 70 70
67.000000 -70.000000 186.114197 71 71 71
68.000000 -70.000000 186.823212 72 72 72
69.000000 -70.000000 186.823212 72 72 72
70.000000 -70.000000 186.114197 71 71 71
72.000000 -70.000000 184.696198 71 71 71
74.000000 -70.000000 187.886719 71 71 71
75.000000 -70.000000 182.569168 70 70 70
76.000000 -70.000000 181.860168 69 69 69
77.000000 -70.000000 183.987183 68 68 68
78.000000 -70.000000 187.532211 66 66 66
79.000000 -70.000000 189.304733 63 63 63
80.000000 -70.000000 187.886719 58 58 58
81.000000 -70.000000 183.632675 53 53 53
87.000000 -70.000000 202.775848 44 44 44
88.000000 -70.000000 205.611877 51 51 51
89.000000 -70.000000 207.029892 61 61 61
90.000000 -70.000000 206.320892 68 68 68
91.000000 -70.000000 206.675385 73 73 73
92.000000 -70.000000 205.611877 78 78 78
93.000000 -70.000000 203.484863 81 81 81
94.000000 -70.000000 203.839371 84 84 84
95.000000 -70.000000 203.484863 86 86 86
96.000000 -70.000000 202.775848 86 86 86
97.000000 -70.000000 202.775848 85 85 85
98.000000 -70.000000 202.421356 87 87 87
99.000000 -70.000000 202.775848 86 86 86
100.000000 -70.000000 203.484863 82 82 82
101.000000 -70.000000 202.421356 78 78 78
102.000000 -70.000000 202.775848 72 72 72
103.000000 -70.000000 203.130356 72 72 72
104.000000 -70.000000 203.130356 72 72 72
105.000000 -70.000000 202.775848 75 75 75
106.000000 -70.000000 201.712341 79 79 79
107.000000 -70.000000 201.003342 80 80 80
108.000000 -70.000000 201.357849 78 78 78
109.000000 -70.000000 185.759705 74 74 74
110.000000 -70.000000 187.886719 73 73 73
111.000000 -70.000000 188.950226 72 72 72
112.000000 -70.000000 190.013733 71 71 71
113.000000 -70.000000 190.368240 74 74 74
114.000000 -70.000000 191.077255 79 79 79
115.000000 -70.000000 190.722748 82 82 82
116.000000 -70.000000 190.368240 84 84 84
117.000000 -70.000000 190.368240 88 88 88
118.000000 -70.000000 188.595718 92 92 92
121.000000 -70.000000 184.696198 105 105 105
122.000000 -70.000000 186.823212 106 106 106
123.000000 -70.000000 187.886719 109 109 109
124.000000 -70.000000 187.532211 111 111 111
125.000000 -70.000000 190.368240 112 112 112
126.000000 -70.000000 191.077255 113 113 113
127.000000 -70.000000 190.722748 113 113 113
128.000000 -70.000000 190.722748 113 113 113
132.000000 -70.000000 194.622284 113 113 113
133.000000 -70.000000 194.976791 114 114 114
134.000000 -70.000000 196.040298 114 114 114
135.000000 -70.000000 195.685791 115 115 115
136.000000 -70.000000 194.622284 116 116 116
137.000000 -70.000000 190.722748 117 117 117
138.000000 -70.000000 191.077255 117 117 117
140.000000 -70.000000 108.123489 117 117 117
141.000000 -70.000000 118.404083 116 116 116
146.000000 -70.000000 141.092285 114 114 114
154.000000 -70.000000 0.000000 109 109 109
155.000000 -70.000000 0.000000 108 108 108
156.000000 -70.000000 0.000000 108 108 108
66.000000 -71.000000 186.468704 70 70 70
67.000000 -71.000000 187.177719 70 70 70
68.000000 -71.000000 188.241226 72 72 72
69.000000 -71.000000 188.595718 73 73 73
70.000000 -71.000000 187.532211 72 72 72
73.000000 -71.000000 186.823212 72 72 72
76.000000 -71.000000 182.214661 70 70 70
77.000000 -71.000000 183.632675 69 69 69
78.000000 -71.000000 186.114197 69 69 69
79.000000 -71.000000 188.595718 66 66 66
87.000000 -71.000000 206.675385 51 51 51
88.000000 -71.000000 207.029892 48 48 48
89.000000 -71.000000 207.738907 49 49 49
90.000000 -71.000000 207.384399 55 55 55
91.000000 -71.000000 207.384399 63 63 63
92.000000 -71.000000 207.029892 70 70 70
93.000000 -71.000000 205.257385 73 73 73
94.000000 -71.000000 204.193863 76 76 76
95.000000 -71.000000 203.484863 79 79 79
96.000000 -71.000000 202.066849 81 81 81
97.000000 -71.000000 202.066849 82 82 82
98.000000 -71.000000 202.066849 83 83 83
99.000000 -71.000000 201.712341 83 83 83
100.000000 -71.000000 202.421356 80 80 80
101.000000 -71.000000 201.712341 75 75 75
102.000000 -71.000000 201.712341 63 63 63
103.000000 -71.000000 202.066849 58 58 58
104.000000 -71.000000 202.421356 60 60 60
105.000000 -71.000000 202.066849 70 70 70
106.000000 -71.000000 201.003342 75 75 75
107.000000 -71.000000 198.876328 72 72 72
109.000000 -71.000000 185.405197 68 68 68
110.000000 -71.000000 187.532211 69 69 69
111.000000 -71.000000 188.595718 73 73 73
112.000000 -71.000000 189.659241 75 75 75
113.000000 -71.000000 190.368240 79 79 79
114.000000 -71.000000 190.722748 82 82 82
115.000000 -71.000000 190.368240 86 86 86
116.000000 -71.000000 190.368240 92 92 92
117.000000 -71.000000 190.013733 98 98 98
118.000000 -71.000000 188.950226 100 100 100
119.000000 -71.000000 188.950226 104 104 104
120.000000 -71.000000 186.823212 110 110 110
121.000000 -71.000000 186.823212 110 110 110
122.000000 -71.000000 188.950226 110 110 110
123.000000 -71.000000 189.659241 112 112 112
124.000000 -71.000000 190.013733 113 113 113
125.000000 -71.000000 190.722748 114 114 114
126.000000 -71.000000 192.495255 114 114 114
127.000000 -71.000000 191.431747 113 113 113
128.000000 -71.000000 191.786255 112 112 112
131.000000 -71.000000 194.976791 109 109 109
132.000000 -71.000000 195.685791 108 108 108
133.000000 -71.000000 195.685791 109 109 109
134.000000 -71.000000 196.749298 111 111 111
135.000000 -71.000000 196.394791 112 112 112
136.000000 -71.000000 195.685791 114 114 114
137.000000 -71.000000 193.204269 116 116 116
138.000000 -71.000000 193.558777 117 117 117
140.000000 -71.000000 108.832497 116 116 116
154.000000 -71.000000 0.000000 112 112 112
155.000000 -71.000000 0.000000 110 110 110
156.000000 -71.000000 0.000000 109 109 109
66.000000 -72.000000 187.886719 67 67 67
67.000000 -72.000000 188.241226 67 67 67
68.000000 -72.000000 189.304733 70 70 70
69.000000 -72.000000 189.659241 71 71 71
70.000000 -72.000000 188.950226 71 71 71
76.000000 -72.000000 183.632675 76 76 76
77.000000 -72.000000 183.987183 77 77 77
78.000000 -72.000000 185.759705 76 76 76
79.000000 -72.000000 188.241226 72 72 72
81.000000 -72.000000 84.371773 64 64 64
87.000000 -72.000000 207.384399 57 57 57
88.000000 -72.000000 207.384399 50 50 50
89.000000 -72.000000 207.738907 40 40 40
90.000000 -72.000000 207.738907 37 37 37
91.000000 -72.000000 208.093399 45 45 45
92.000000 -72.000000 207.738907 54 54 54
93.000000 -72.000000 205.966385 61 61 61
94.000000 -72.000000 203.130356 65 65 65
95.000000 -72.000000 202.421356 68 68 68
96.000000 -72.000000 201.357849 71 71 71
97.000000 -72.000000 201.357849 72 72 72
98.000000 -72.000000 201.357849 72 72 72
99.000000 -72.000000 201.003342 70 70 70
101.000000 -72.000000 201.712341 63 63 63
102.000000 -72.000000 201.712341 56 56 56
103.000000 -72.000000 201.712341 50 50 50
104.000000 -72.000000 201.712341 51 51 51
105.000000 -72.000000 201.357849 58 58 58
106.000000 -72.000000 199.585327 61 61 61
107.000000 -72.000000 197.103806 58 58 58
109.000000 -72.000000 185.050690 65 65 65
110.000000 -72.000000 186.468704 72 72 72
111.000000 -72.000000 187.532211 78 78 78
112.000000 -72.000000 188.241226 82 82 82
113.000000 -72.000000 189.659241 86 86 86
114.000000 -72.000000 190.013733 90 90 90
115.000000 -72.000000 190.013733 97 97 97
116.000000 -72.000000 190.368240 104 104 104
117.000000 -72.000000 190.368240 109 109 109
118.000000 -72.000000 189.659241 110 110 110
119.000000 -72.000000 190.013733 112 112 112
120.000000 -72.000000 189.659241 115 115 115
121.000000 -72.000000 188.950226 116 116 116
122.000000 -72.000000 189.659241 115 115 115
123.000000 -72.000000 190.013733 115 115 115
124.000000 -72.000000 190.368240 117 117 117
125.000000 -72.000000 191.431747 118 118 118
126.000000 -72.000000 193.558777 118 118 118
127.000000 -72.000000 192.140762 116 116 116
128.000000 -72.000000 192.849762 115 115 115
132.000000 -72.000000 196.040298 112 112 112
133.000000 -72.000000 196.040298 110 110 110
134.000000 -72.000000 197.812805 112 112 112
135.000000 -72.000000 197.103806 116 116 116
136.000000 -72.000000 196.040298 120 120 120
137.000000 -72.000000 194.267776 124 124 124
138.000000 -72.000000 194.267776 123 123 123
139.000000 -72.000000 194.976791 123 123 123
149.000000 -72.000000 126.912163 118 118 118
152.000000 -72.000000 125.139648 114 114 114
154.000000 -72.000000 4.608542 113 113 113
155.000000 -72.000000 0.000000 113 113 113
156.000000 -72.000000 0.000000 112 112 112
66.000000 -73.000000 188.595718 73 73 73
67.000000 -73.000000 188.950226 74 74 74
68.000000 -73.000000 190.013733 75 75 75
72.000000 -73.000000 197.103806 76 76 76
73.000000 -73.000000 196.749298 76 76 76
74.000000 -73.000000 197.458313 78 78 78
75.000000 -73.000000 193.913269 78 78 78
77.000000 -73.000000 185.050690 76 76 76
78.000000 -73.000000 186.114197 77 77 77
79.000000 -73.000000 188.595718 74 74 74
80.000000 -73.000000 83.662766 73 73 73
81.000000 -73.000000 84.017265 71 71 71
82.000000 -73.000000 84.726273 69 69 69
87.000000 -73.000000 207.738907 61 61 61
88.000000 -73.000000 207.738907 50 50 50
89.000000 -73.000000 207.384399 38 38 38
90.000000 -73.000000 207.738907 30 30 30
91.000000 -73.000000 208.093399 28 28 28
92.000000 -73.000000 208.093399 31 31 31
93.000000 -73.000000 206.675385 37 37 37
94.000000 -73.000000 202.421356 43 43 43
95.000000 -73.000000 201.357849 47 47 47
96.000000 -73.000000 201.003342 53 53 53
97.000000 -73.000000 200.648834 55 55 55
98.000000 -73.000000 200.648834 56 56 56
99.000000 -73.000000 201.003342 54 54 54
101.000000 -73.000000 201.357849 46 46 46
102.000000 -73.000000 201.003342 43 43 43
103.000000 -73.000000 201.003342 40 40 40
104.000000 -73.000000 201.357849 38 38 38
105.000000 -73.000000 201.003342 37 37 37
106.000000 -73.000000 197.458313 37 37 37
107.000000 -73.000000 196.394791 38 38 38
109.000000 -73.000000 184.696198 60 60 60
110.000000 -73.000000 185.759705 74 74 74
111.000000 -73.000000 186.468704 83 83 83
112.000000 -73.000000 187.532211 91 91 91
113.000000 -73.000000 189.304733 99 99 99
114.000000 -73.000000 190.368240 103 103 103
115.000000 -73.000000 191.077255 108 108 108
116.000000 -73.000000 191.077255 112 112 112
117.000000 -73.000000 192.849762 115 115 115
118.000000 -73.000000 191.431747 116 116 116
119.000000 -73.000000 191.077255 118 118 118
120.000000 -73.000000 190.722748 119 119 119
121.000000 -73.000000 190.368240 120 120 120
122.000000 -73.000000 190.013733 120 120 120
123.000000 -73.000000 190.722748 120 120 120
124.000000 -73.000000 191.431747 119 119 119
125.000000 -73.000000 192.495255 120 120 120
126.000000 -73.000000 194.622284 120 120 120
127.000000 -73.000000 193.558777 120 120 120
128.000000 -73.000000 194.267776 120 120 120
129.000000 -73.000000 194.976791 123 123 123
132.000000 -73.000000 196.394791 120 120 120
133.000000 -73.000000 196.394791 117 117 117
134.000000 -73.000000 198.167313 118 118 118
135.000000 -73.000000 197.103806 121 121 121
136.000000 -73.000000 195.685791 125 125 125
137.000000 -73.000000 193.913269 130 130 130
138.000000 -73.000000 194.267776 131 131 131
139.000000 -73.000000 194.622284 131 131 131
146.000000 -73.000000 130.102692 121 121 121
148.000000 -73.000000 126.557655 121 121 121
149.000000 -73.000000 126.557655 122 122 122
154.000000 -73.000000 162.716995 115 115 115
155.000000 -73.000000 0.000000 116 116 116
156.000000 -73.000000 0.000000 116 116 116
66.000000 -74.000000 188.241226 80 80 80
67.000000 -74.000000 188.950226 82 82 82
68.000000 -74.000000 190.013733 82 82 82
71.000000 -74.000000 196.749298 81 81 81
72.000000 -74.000000 198.167313 79 79 79
73.000000 -74.000000 198.167313 76 76 76
74.000000 -74.000000 199.230820 77 77 77
75.000000 -74.000000 197.458313 76 76 76
76.000000 -74.000000 192.849762 76 76 76
77.000000 -74.000000 190.013733 76 76 76
78.000000 -74.000000 188.595718 75 75 75
79.000000 -74.000000 190.013733 74 74 74
80.000000 -74.000000 83.308266 73 73 73
81.000000 -74.000000 83.308266 72 72 72
87.000000 -74.000000 209.511414 67 67 67
88.000000 -74.000000 208.802414 61 61 61
89.000000 -74.000000 208.093399 57 57 57
90.000000 -74.000000 208.447906 53 53 53
91.000000 -74.000000 208.802414 49 49 49
92.000000 -74.000000 208.447906 45 45 45
93.000000 -74.000000 207.384399 41 41 41
94.000000 -74.000000 202.421356 39 39 39
95.000000 -74.000000 201.003342 38 38 38
96.000000 -74.000000 200.648834 39 39 39
97.000000 -74.000000 200.294327 39 39 39
98.000000 -74.000000 200.294327 39 39 39
99.000000 -74.000000 200.648834 38 38 38
100.000000 -74.000000 201.003342 36 36 36
101.000000 -74.000000 201.003342 35 35 35
102.000000 -74.000000 201.357849 35 35 35
103.000000 -74.000000 201.003342 36 36 36
104.000000 -74.000000 201.712341 35 35 35
105.000000 -74.000000 201.357849 35 35 35
109.000000 -74.000000 185.050690 68 68 68
110.000000 -74.000000 185.759705 79 79 79
111.000000 -74.000000 186.823212 90 90 90
112.000000 -74.000000 188.595718 101 101 101
113.000000 -74.000000 190.013733 108 108 108
114.000000 -74.000000 191.431747 112 112 112
115.000000 -74.000000 191.786255 115 115 115
116.000000 -74.000000 192.849762 117 117 117
117.000000 -74.000000 194.267776 119 119 119
118.000000 -74.000000 194.267776 121 121 121
119.000000 -74.000000 193.204269 122 122 122
120.000000 -74.000000 192.140762 122 122 122
121.000000 -74.000000 191.786255 123 123 123
125.000000 -74.000000 193.913269 123 123 123
126.000000 -74.000000 195.685791 124 124 124
127.000000 -74.000000 194.622284 125 125 125
128.000000 -74.000000 194.622284 125 125 125
129.000000 -74.000000 195.331284 127 127 127
132.000000 -74.000000 196.749298 125 125 125
133.000000 -74.000000 196.394791 125 125 125
134.000000 -74.000000 198.521820 125 125 125
135.000000 -74.000000 196.749298 127 127 127
136.000000 -74.000000 195.331284 129 129 129
137.000000 -74.000000 193.913269 133 133 133
138.000000 -74.000000 194.267776 134 134 134
139.000000 -74.000000 194.622284 134 134 134
140.000000 -74.000000 77.281708 133 133 133
148.000000 -74.000000 126.912163 125 125 125
149.000000 -74.000000 127.266663 125 125 125
151.000000 -74.000000 162.716995 125 125 125
153.000000 -74.000000 162.716995 121 121 121
154.000000 -74.000000 162.716995 120 120 120
156.000000 -74.000000 0.000000 121 121 121
66.000000 -75.000000 187.177719 82 82 82
67.000000 -75.000000 188.595718 83 83 83
68.000000 -75.000000 190.013733 82 82 82
71.000000 -75.000000 197.103806 80 80 80
72.000000 -75.000000 198.521820 78 78 78
73.000000 -75.000000 199.230820 77 77 77
74.000000 -75.000000 200.648834 76 76 76
75.000000 -75.000000 201.003342 77 77 77
76.000000 -75.000000 196.749298 78 78 78
77.000000 -75.000000 194.622284 77 77 77
79.000000 -75.000000 192.140762 74 74 74
87.000000 -75.000000 210.929428 76 76 76
88.000000 -75.000000 209.865921 74 74 74
89.000000 -75.000000 208.447906 72 72 72
90.000000 -75.000000 208.802414 71 71 71
91.000000 -75.000000 209.511414 71 71 71
92.000000 -75.000000 208.802414 70 70 70
93.000000 -75.000000 208.093399 70 70 70
94.000000 -75.000000 202.775848 69 69 69
95.000000 -75.000000 201.003342 69 69 69
96.000000 -75.000000 200.294327 69 69 69
97.000000 -75.000000 199.939835 66 66 66
98.000000 -75.000000 199.939835 62 62 62
99.000000 -75.000000 200.294327 62 62 62
100.000000 -75.000000 200.648834 62 62 62
101.000000 -75.000000 201.357849 64 64 64
102.000000 -75.000000 201.712341 65 65 65
103.000000 -75.000000 201.712341 67 67 67
104.000000 -75.000000 202.421356 67 67 67
105.000000 -75.000000 202.066849 71 71 71
108.000000 -75.000000 183.632675 87 87 87
109.000000 -75.000000 185.405197 91 91 91
110.000000 -75.000000 185.759705 93 93 93
111.000000 -75.000000 187.177719 97 97 97
112.000000 -75.000000 188.950226 104 104 104
113.000000 -75.000000 190.013733 112 112 112
114.000000 -75.000000 191.431747 117 117 117
115.000000 -75.000000 191.786255 119 119 119
116.000000 -75.000000 193.204269 121 121 121
117.000000 -75.000000 194.622284 124 124 124
118.000000 -75.000000 194.976791 124 124 124
119.000000 -75.000000 194.622284 123 123 123
120.000000 -75.000000 194.622284 124 124 124
121.000000 -75.000000 194.267776 125 125 125
122.000000 -75.000000 197.812805 126 126 126
128.000000 -75.000000 195.331284 128 128 128
131.000000 -75.000000 141.446793 128 128 128
133.000000 -75.000000 197.812805 128 128 128
134.000000 -75.000000 201.003342 129 129 129
135.000000 -75.000000 200.294327 132 132 132
137.000000 -75.000000 194.622284 138 138 138
138.000000 -75.000000 194.622284 137 137 137
139.000000 -75.000000 194.976791 137 137 137
146.000000 -75.000000 220.501022 130 130 130
154.000000 -75.000000 162.716995 126 126 126
155.000000 -75.000000 162.716995 127 127 127
66.000000 -76.000000 186.114197 78 78 78
67.000000 -76.000000 188.950226 77 77 77
68.000000 -76.000000 191.431747 76 76 76
71.000000 -76.000000 197.458313 76 76 76
72.000000 -76.000000 198.876328 76 76 76
73.000000 -76.000000 199.939835 76 76 76
74.000000 -76.000000 201.003342 76 76 76
75.000000 -76.000000 201.712341 77 77 77
76.000000 -76.000000 199.939835 77 77 77
77.000000 -76.000000 199.939835 76 76 76
80.000000 -76.000000 357.339264 77 77 77
81.000000 -76.000000 357.339264 77 77 77
87.000000 -76.000000 208.802414 80 80 80
88.000000 -76.000000 208.802414 78 78 78
89.000000 -76.000000 207.384399 77 77 77
90.000000 -76.000000 207.738907 77 77 77
91.000000 -76.000000 208.802414 76 76 76
92.000000 -76.000000 208.447906 77 77 77
93.000000 -76.000000 208.093399 79 79 79
94.000000 -76.000000 204.548370 80 80 80
95.000000 -76.000000 201.357849 82 82 82
96.000000 -76.000000 200.294327 85 85 85
97.000000 -76.000000 199.939835 85 85 85
98.000000 -76.000000 199.939835 83 83 83
99.000000 -76.000000 200.294327 83 83 83
100.000000 -76.000000 200.294327 84 84 84
101.000000 -76.000000 201.712341 85 85 85
102.000000 -76.000000 201.357849 87 87 87
103.000000 -76.000000 202.066849 88 88 88
107.000000 -76.000000 185.405197 95 95 95
108.000000 -76.000000 184.341690 98 98 98
109.000000 -76.000000 185.405197 103 103 103
110.000000 -76.000000 185.759705 105 105 105
111.000000 -76.000000 187.177719 107 107 107
112.000000 -76.000000 188.595718 110 110 110
113.000000 -76.000000 189.659241 114 114 114
114.000000 -76.000000 190.368240 121 121 121
115.000000 -76.000000 191.431747 125 125 125
116.000000 -76.000000 192.849762 128 128 128
117.000000 -76.000000 194.622284 131 131 131
118.000000 -76.000000 195.685791 131 131 131
119.000000 -76.000000 195.685791 131 131 131
120.000000 -76.000000 196.040298 131 131 131
121.000000 -76.000000 196.394791 130 130 130
122.000000 -76.000000 198.876328 130 130 130
124.000000 -76.000000 202.066849 131 131 131
125.000000 -76.000000 204.193863 132 132 132
126.000000 -76.000000 204.193863 132 132 132
128.000000 -76.000000 199.230820 131 131 131
129.000000 -76.000000 199.939835 131 131 131
131.000000 -76.000000 142.155807 132 132 132
132.000000 -76.000000 143.219315 133 133 133
137.000000 -76.000000 194.267776 137 137 137
140.000000 -76.000000 75.509193 137 137 137
142.000000 -76.000000 78.699722 134 134 134
144.000000 -76.000000 204.902878 132 132 132
146.000000 -76.000000 221.564529 133 133 133
147.000000 -76.000000 224.400558 133 133 133
153.000000 -76.000000 163.071487 130 130 130
154.000000 -76.000000 163.425995 132 132 132
155.000000 -76.000000 163.780502 132 132 132
66.000000 -77.000000 187.177719 78 78 78
67.000000 -77.000000 190.722748 78 78 78
68.000000 -77.000000 196.040298 77 77 77
69.000000 -77.000000 197.812805 76 76 76
70.000000 -77.000000 197.812805 76 76 76
71.000000 -77.000000 198.521820 76 76 76
72.000000 -77.000000 199.939835 76 76 76
73.000000 -77.000000 201.003342 76 76 76
74.000000 -77.000000 201.357849 76 76 76
75.000000 -77.000000 201.712341 77 77 77
76.000000 -77.000000 201.357849 77 77 77
77.000000 -77.000000 202.421356 76 76 76
80.000000 -77.000000 357.339264 78 78 78
89.000000 -77.000000 205.966385 82 82 82
90.000000 -77.000000 207.384399 83 83 83
91.000000 -77.000000 209.156921 83 83 83
92.000000 -77.000000 208.802414 83 83 83
93.000000 -77.000000 208.802414 85 85 85
94.000000 -77.000000 206.320892 86 86 86
98.000000 -77.000000 200.294327 90 90 90
106.000000 -77.000000 191.786255 96 96 96
108.000000 -77.000000 183.987183 98 98 98
109.000000 -77.000000 185.050690 101 101 101
110.000000 -77.000000 185.759705 103 103 103
111.000000 -77.000000 187.532211 104 104 104
112.000000 -77.000000 188.241226 106 106 106
113.000000 -77.000000 189.304733 108 108 108
114.000000 -77.000000 190.013733 116 116 116
115.000000 -77.000000 191.077255 124 124 124
116.000000 -77.000000 192.495255 129 129 129
117.000000 -77.000000 194.622284 134 134 134
118.000000 -77.000000 195.685791 135 135 135
119.000000 -77.000000 196.040298 136 136 136
120.000000 -77.000000 196.040298 137 137 137
121.000000 -77.000000 196.394791 136 136 136
122.000000 -77.000000 198.521820 135 135 135
123.000000 -77.000000 199.939835 136 136 136
125.000000 -77.000000 203.484863 138 138 138
126.000000 -77.000000 205.257385 138 138 138
127.000000 -77.000000 204.902878 137 137 137
131.000000 -77.000000 140.028778 135 135 135
140.000000 -77.000000 76.218201 135 135 135
141.000000 -77.000000 76.927200 133 133 133
142.000000 -77.000000 77.990715 133 133 133
144.000000 -77.000000 205.611877 131 131 131
153.000000 -77.000000 162.716995 133 133 133
154.000000 -77.000000 163.780502 135 135 135
155.000000 -77.000000 164.489502 135 135 135
67.000000 -78.000000 193.204269 78 78 78
68.000000 -78.000000 197.103806 79 79 79
70.000000 -78.000000 198.167313 80 80 80
71.000000 -78.000000 199.939835 80 80 80
72.000000 -78.000000 201.003342 80 80 80
73.000000 -78.000000 201.712341 80 80 80
74.000000 -78.000000 201.357849 81 81 81
75.000000 -78.000000 201.003342 82 82 82
76.000000 -78.000000 201.357849 82 82 82
77.000000 -78.000000 204.193863 81 81 81
91.000000 -78.000000 209.511414 87 87 87
108.000000 -78.000000 183.632675 98 98 98
109.000000 -78.000000 184.696198 99 99 99
110.000000 -78.000000 185.759705 100 100 100
111.000000 -78.000000 187.532211 100 100 100
112.000000 -78.000000 188.241226 101 101 101
113.000000 -78.000000 188.950226 104 104 104
114.000000 -78.000000 190.013733 109 109 109
115.000000 -78.000000 190.722748 115 115 115
116.000000 -78.000000 192.140762 123 123 123
117.000000 -78.000000 194.267776 130 130 130
118.000000 -78.000000 195.331284 131 131 131
119.000000 -78.000000 196.040298 134 134 134
120.000000 -78.000000 196.394791 136 136 136
121.000000 -78.000000 196.749298 137 137 137
122.000000 -78.000000 198.876328 138 138 138
123.000000 -78.000000 199.939835 138 138 138
129.000000 -78.000000 135.420242 140 140 140
130.000000 -78.000000 137.192749 140 140 140
131.000000 -78.000000 138.610764 139 139 139
140.000000 -78.000000 75.509193 137 137 137
141.000000 -78.000000 74.800186 135 135 135
142.000000 -78.000000 76.572701 135 135 135
144.000000 -78.000000 205.966385 132 132 132
153.000000 -78.000000 163.071487 135 135 135
154.000000 -78.000000 164.134995 135 135 135
155.000000 -78.000000 165.553009 136 136 136
74.000000 -79.000000 208.802414 86 86 86
76.000000 -79.000000 201.357849 86 86 86
83.000000 -79.000000 214.119965 86 86 86
86.000000 -79.000000 215.537979 87 87 87
87.000000 -79.000000 214.474457 87 87 87
88.000000 -79.000000 216.246979 89 89 89
91.000000 -79.000000 211.283936 90 90 90
94.000000 -79.000000 203.130356 89 89 89
103.000000 -79.000000 256.305847 91 91 91
110.000000 -79.000000 185.759705 100 100 100
111.000000 -79.000000 187.886719 101 101 101
112.000000 -79.000000 188.595718 102 102 102
113.000000 -79.000000 188.950226 104 104 104
114.000000 -79.000000 189.659241 107 107 107
115.000000 -79.000000 190.368240 111 111 111
116.000000 -79.000000 191.431747 118 118 118
117.000000 -79.000000 193.913269 125 125 125
118.000000 -79.000000 194.976791 129 129 129
119.000000 -79.000000 196.040298 132 132 132
120.000000 -79.000000 196.749298 134 134 134
121.000000 -79.000000 197.458313 135 135 135
122.000000 -79.000000 199.585327 136 136 136
123.000000 -79.000000 200.294327 137 137 137
124.000000 -79.000000 38.640854 137 137 137
125.000000 -79.000000 42.185886 138 138 138
