ply
		format ascii 1.0
		element vertex 4429
		property float x
		property float y
		property float z
		property uchar red
		property uchar green
		property uchar blue
		end_header
83.000000 -38.000000 154.208908 127 127 127
84.000000 -38.000000 153.499908 138 138 138
85.000000 -38.000000 154.917923 144 144 144
86.000000 -38.000000 153.145401 140 140 140
87.000000 -38.000000 152.081894 136 136 136
88.000000 -38.000000 151.372879 128 128 128
89.000000 -38.000000 150.663879 122 122 122
90.000000 -38.000000 149.954880 111 111 111
91.000000 -38.000000 149.954880 108 108 108
92.000000 -38.000000 149.954880 159 159 159
93.000000 -38.000000 149.600372 201 201 201
94.000000 -38.000000 149.600372 205 205 205
95.000000 -38.000000 149.600372 205 205 205
96.000000 -38.000000 148.536865 206 206 206
97.000000 -38.000000 149.245865 207 207 207
98.000000 -38.000000 148.891357 207 207 207
99.000000 -38.000000 147.118851 207 207 207
100.000000 -38.000000 110.959518 208 208 208
104.000000 -38.000000 93.943359 208 208 208
105.000000 -38.000000 93.588860 209 209 209
106.000000 -38.000000 94.297859 210 210 210
107.000000 -38.000000 95.006866 211 211 211
108.000000 -38.000000 96.070381 211 211 211
109.000000 -38.000000 97.133888 211 211 211
110.000000 -38.000000 98.197395 211 211 211
111.000000 -38.000000 97.488396 210 210 210
112.000000 -38.000000 97.133888 209 209 209
113.000000 -38.000000 97.133888 209 209 209
114.000000 -38.000000 97.133888 209 209 209
115.000000 -38.000000 96.779388 209 209 209
116.000000 -38.000000 96.779388 208 208 208
117.000000 -38.000000 96.424881 208 208 208
118.000000 -38.000000 96.424881 208 208 208
119.000000 -38.000000 96.070381 207 207 207
120.000000 -38.000000 95.006866 207 207 207
121.000000 -38.000000 91.816338 207 207 207
122.000000 -38.000000 92.525345 207 207 207
123.000000 -38.000000 92.525345 206 206 206
124.000000 -38.000000 92.879852 205 205 205
125.000000 -38.000000 93.943359 204 204 204
127.000000 -38.000000 99.260910 203 203 203
128.000000 -38.000000 102.451439 202 202 202
129.000000 -38.000000 101.033424 201 201 201
130.000000 -38.000000 101.742432 199 199 199
131.000000 -38.000000 101.033424 198 198 198
132.000000 -38.000000 100.678925 197 197 197
133.000000 -38.000000 100.324417 193 193 193
134.000000 -38.000000 100.678925 191 191 191
135.000000 -38.000000 100.324417 193 193 193
136.000000 -38.000000 100.324417 192 192 192
137.000000 -38.000000 100.324417 188 188 188
138.000000 -38.000000 103.160446 158 158 158
139.000000 -38.000000 102.805939 104 104 104
140.000000 -38.000000 103.869453 92 92 92
141.000000 -38.000000 104.932961 86 86 86
142.000000 -38.000000 105.996468 73 73 73
143.000000 -38.000000 106.350975 63 63 63
144.000000 -38.000000 106.705475 61 61 61
145.000000 -38.000000 107.059982 66 66 66
146.000000 -38.000000 106.705475 95 95 95
147.000000 -38.000000 106.705475 124 124 124
148.000000 -38.000000 106.350975 128 128 128
149.000000 -38.000000 105.996468 138 138 138
150.000000 -38.000000 106.705475 140 140 140
151.000000 -38.000000 109.541504 141 141 141
152.000000 -38.000000 107.768990 146 146 146
153.000000 -38.000000 105.287460 147 147 147
154.000000 -38.000000 105.641968 118 118 118
74.000000 -39.000000 150.309372 149 149 149
75.000000 -39.000000 150.663879 100 100 100
76.000000 -39.000000 151.018387 96 96 96
77.000000 -39.000000 151.727386 94 94 94
78.000000 -39.000000 152.081894 91 91 91
79.000000 -39.000000 153.145401 96 96 96
80.000000 -39.000000 153.854401 108 108 108
81.000000 -39.000000 153.145401 124 124 124
82.000000 -39.000000 153.145401 137 137 137
83.000000 -39.000000 152.790894 146 146 146
84.000000 -39.000000 151.727386 149 149 149
85.000000 -39.000000 153.145401 148 148 148
86.000000 -39.000000 151.372879 145 145 145
87.000000 -39.000000 151.018387 139 139 139
88.000000 -39.000000 150.309372 131 131 131
89.000000 -39.000000 149.954880 117 117 117
90.000000 -39.000000 149.245865 105 105 105
91.000000 -39.000000 149.245865 110 110 110
92.000000 -39.000000 148.891357 168 168 168
93.000000 -39.000000 149.245865 198 198 198
94.000000 -39.000000 149.245865 200 200 200
95.000000 -39.000000 149.245865 201 201 201
96.000000 -39.000000 148.182358 201 201 201
97.000000 -39.000000 149.245865 202 202 202
98.000000 -39.000000 148.536865 203 203 203
100.000000 -39.000000 110.959518 204 204 204
104.000000 -39.000000 93.234352 206 206 206
105.000000 -39.000000 92.525345 206 206 206
106.000000 -39.000000 93.588860 207 207 207
107.000000 -39.000000 93.943359 208 208 208
108.000000 -39.000000 95.715874 208 208 208
109.000000 -39.000000 96.779388 207 207 207
110.000000 -39.000000 98.197395 207 207 207
124.000000 -39.000000 92.525345 203 203 203
125.000000 -39.000000 94.297859 202 202 202
126.000000 -39.000000 96.424881 201 201 201
127.000000 -39.000000 98.906403 201 201 201
128.000000 -39.000000 102.096931 199 199 199
129.000000 -39.000000 101.033424 199 199 199
130.000000 -39.000000 101.742432 198 198 198
131.000000 -39.000000 101.387924 197 197 197
132.000000 -39.000000 100.678925 196 196 196
133.000000 -39.000000 100.678925 190 190 190
134.000000 -39.000000 100.678925 188 188 188
135.000000 -39.000000 100.324417 191 191 191
136.000000 -39.000000 100.678925 191 191 191
137.000000 -39.000000 100.678925 187 187 187
138.000000 -39.000000 103.160446 156 156 156
139.000000 -39.000000 102.805939 104 104 104
140.000000 -39.000000 103.869453 93 93 93
141.000000 -39.000000 104.932961 88 88 88
142.000000 -39.000000 105.996468 75 75 75
143.000000 -39.000000 106.350975 63 63 63
144.000000 -39.000000 106.350975 64 64 64
145.000000 -39.000000 106.350975 68 68 68
146.000000 -39.000000 106.350975 95 95 95
147.000000 -39.000000 106.705475 124 124 124
148.000000 -39.000000 106.350975 125 125 125
149.000000 -39.000000 105.996468 127 127 127
150.000000 -39.000000 106.350975 128 128 128
151.000000 -39.000000 109.186996 127 127 127
152.000000 -39.000000 107.059982 128 128 128
153.000000 -39.000000 104.932961 127 127 127
154.000000 -39.000000 105.287460 118 118 118
74.000000 -40.000000 150.309372 98 98 98
75.000000 -40.000000 150.663879 93 93 93
76.000000 -40.000000 151.018387 96 96 96
77.000000 -40.000000 151.727386 95 95 95
78.000000 -40.000000 152.081894 95 95 95
79.000000 -40.000000 152.790894 104 104 104
80.000000 -40.000000 153.499908 119 119 119
81.000000 -40.000000 152.790894 138 138 138
82.000000 -40.000000 152.436401 153 153 153
83.000000 -40.000000 152.081894 159 159 159
84.000000 -40.000000 151.018387 154 154 154
85.000000 -40.000000 152.081894 149 149 149
86.000000 -40.000000 150.663879 148 148 148
87.000000 -40.000000 150.663879 143 143 143
88.000000 -40.000000 149.954880 133 133 133
89.000000 -40.000000 149.600372 120 120 120
90.000000 -40.000000 148.891357 108 108 108
91.000000 -40.000000 148.891357 103 103 103
92.000000 -40.000000 148.182358 128 128 128
93.000000 -40.000000 148.891357 143 143 143
94.000000 -40.000000 148.536865 146 146 146
95.000000 -40.000000 148.891357 148 148 148
96.000000 -40.000000 147.473343 150 150 150
97.000000 -40.000000 149.245865 152 152 152
98.000000 -40.000000 148.182358 153 153 153
100.000000 -40.000000 110.959518 157 157 157
104.000000 -40.000000 92.879852 165 165 165
105.000000 -40.000000 92.170845 166 166 166
106.000000 -40.000000 92.525345 167 167 167
107.000000 -40.000000 92.525345 169 169 169
111.000000 -40.000000 41.476879 174 174 174
112.000000 -40.000000 40.767872 175 175 175
113.000000 -40.000000 40.767872 176 176 176
114.000000 -40.000000 40.767872 176 176 176
117.000000 -40.000000 59.911049 180 180 180
118.000000 -40.000000 59.202042 181 181 181
119.000000 -40.000000 61.329060 181 181 181
124.000000 -40.000000 92.879852 183 183 183
125.000000 -40.000000 93.943359 183 183 183
126.000000 -40.000000 95.006866 183 183 183
127.000000 -40.000000 98.551903 183 183 183
128.000000 -40.000000 101.742432 183 183 183
129.000000 -40.000000 100.678925 184 184 184
130.000000 -40.000000 102.096931 183 183 183
131.000000 -40.000000 101.742432 182 182 182
132.000000 -40.000000 101.387924 181 181 181
133.000000 -40.000000 101.033424 175 175 175
134.000000 -40.000000 101.387924 176 176 176
135.000000 -40.000000 100.678925 181 181 181
136.000000 -40.000000 100.678925 182 182 182
137.000000 -40.000000 101.033424 179 179 179
138.000000 -40.000000 103.514946 150 150 150
139.000000 -40.000000 103.514946 101 101 101
140.000000 -40.000000 104.223953 92 92 92
141.000000 -40.000000 104.932961 87 87 87
142.000000 -40.000000 105.996468 76 76 76
143.000000 -40.000000 105.996468 66 66 66
144.000000 -40.000000 106.350975 67 67 67
145.000000 -40.000000 106.350975 67 67 67
146.000000 -40.000000 106.350975 93 93 93
147.000000 -40.000000 106.705475 123 123 123
148.000000 -40.000000 106.350975 123 123 123
149.000000 -40.000000 105.996468 121 121 121
150.000000 -40.000000 106.350975 121 121 121
151.000000 -40.000000 108.477989 119 119 119
152.000000 -40.000000 106.705475 118 118 118
153.000000 -40.000000 104.578461 117 117 117
154.000000 -40.000000 105.287460 116 116 116
74.000000 -41.000000 149.954880 54 54 54
75.000000 -41.000000 150.663879 82 82 82
76.000000 -41.000000 150.663879 85 85 85
77.000000 -41.000000 151.727386 91 91 91
78.000000 -41.000000 151.727386 97 97 97
79.000000 -41.000000 152.436401 103 103 103
80.000000 -41.000000 152.790894 114 114 114
81.000000 -41.000000 152.436401 128 128 128
82.000000 -41.000000 151.727386 140 140 140
83.000000 -41.000000 151.727386 144 144 144
84.000000 -41.000000 151.018387 134 134 134
85.000000 -41.000000 151.727386 122 122 122
86.000000 -41.000000 150.663879 113 113 113
87.000000 -41.000000 150.663879 104 104 104
88.000000 -41.000000 149.954880 104 104 104
89.000000 -41.000000 149.600372 102 102 102
90.000000 -41.000000 148.891357 94 94 94
91.000000 -41.000000 148.891357 82 82 82
92.000000 -41.000000 148.182358 60 60 60
93.000000 -41.000000 148.891357 55 55 55
94.000000 -41.000000 148.536865 57 57 57
95.000000 -41.000000 148.891357 59 59 59
96.000000 -41.000000 147.473343 60 60 60
97.000000 -41.000000 148.891357 61 61 61
98.000000 -41.000000 148.536865 62 62 62
102.000000 -41.000000 92.879852 69 69 69
103.000000 -41.000000 93.234352 71 71 71
104.000000 -41.000000 93.234352 72 72 72
105.000000 -41.000000 92.525345 73 73 73
106.000000 -41.000000 92.879852 74 74 74
107.000000 -41.000000 92.879852 75 75 75
111.000000 -41.000000 41.831383 81 81 81
112.000000 -41.000000 41.476879 82 82 82
114.000000 -41.000000 41.122375 83 83 83
117.000000 -41.000000 60.620056 88 88 88
119.000000 -41.000000 61.683563 90 90 90
124.000000 -41.000000 93.234352 94 94 94
125.000000 -41.000000 93.943359 96 96 96
126.000000 -41.000000 95.361374 98 98 98
127.000000 -41.000000 98.551903 99 99 99
128.000000 -41.000000 101.387924 100 100 100
129.000000 -41.000000 100.678925 101 101 101
130.000000 -41.000000 102.451439 101 101 101
131.000000 -41.000000 102.096931 101 101 101
132.000000 -41.000000 101.742432 101 101 101
133.000000 -41.000000 101.387924 100 100 100
134.000000 -41.000000 102.096931 102 102 102
135.000000 -41.000000 101.033424 105 105 105
136.000000 -41.000000 101.033424 107 107 107
137.000000 -41.000000 101.387924 114 114 114
138.000000 -41.000000 103.869453 111 111 111
139.000000 -41.000000 103.869453 92 92 92
140.000000 -41.000000 104.223953 91 91 91
141.000000 -41.000000 104.932961 87 87 87
142.000000 -41.000000 106.350975 77 77 77
143.000000 -41.000000 106.350975 67 67 67
144.000000 -41.000000 106.350975 62 62 62
145.000000 -41.000000 106.350975 66 66 66
146.000000 -41.000000 106.705475 94 94 94
147.000000 -41.000000 107.059982 123 123 123
148.000000 -41.000000 106.705475 123 123 123
149.000000 -41.000000 106.350975 120 120 120
150.000000 -41.000000 106.350975 118 118 118
151.000000 -41.000000 108.477989 117 117 117
152.000000 -41.000000 107.059982 116 116 116
153.000000 -41.000000 104.578461 117 117 117
154.000000 -41.000000 105.287460 116 116 116
74.000000 -42.000000 149.954880 59 59 59
75.000000 -42.000000 150.309372 79 79 79
76.000000 -42.000000 150.663879 74 74 74
77.000000 -42.000000 151.727386 77 77 77
78.000000 -42.000000 151.727386 83 83 83
79.000000 -42.000000 152.081894 95 95 95
80.000000 -42.000000 152.436401 105 105 105
81.000000 -42.000000 152.436401 113 113 113
82.000000 -42.000000 151.727386 120 120 120
83.000000 -42.000000 151.727386 122 122 122
84.000000 -42.000000 151.018387 115 115 115
85.000000 -42.000000 151.372879 99 99 99
86.000000 -42.000000 151.018387 83 83 83
87.000000 -42.000000 150.663879 75 75 75
88.000000 -42.000000 149.954880 86 86 86
89.000000 -42.000000 149.600372 93 93 93
90.000000 -42.000000 149.245865 85 85 85
91.000000 -42.000000 149.245865 77 77 77
92.000000 -42.000000 148.536865 55 55 55
93.000000 -42.000000 149.245865 48 48 48
94.000000 -42.000000 148.536865 49 49 49
95.000000 -42.000000 148.891357 49 49 49
96.000000 -42.000000 147.827850 49 49 49
97.000000 -42.000000 148.891357 50 50 50
98.000000 -42.000000 148.536865 50 50 50
101.000000 -42.000000 91.816338 51 51 51
102.000000 -42.000000 92.879852 51 51 51
103.000000 -42.000000 93.234352 51 51 51
104.000000 -42.000000 93.234352 51 51 51
105.000000 -42.000000 92.879852 52 52 52
111.000000 -42.000000 41.831383 52 52 52
117.000000 -42.000000 60.620056 51 51 51
119.000000 -42.000000 61.683563 50 50 50
123.000000 -42.000000 92.879852 49 49 49
124.000000 -42.000000 92.879852 49 49 49
125.000000 -42.000000 93.943359 49 49 49
126.000000 -42.000000 95.361374 49 49 49
127.000000 -42.000000 98.551903 48 48 48
128.000000 -42.000000 101.387924 48 48 48
129.000000 -42.000000 100.678925 47 47 47
130.000000 -42.000000 102.451439 47 47 47
131.000000 -42.000000 102.805939 46 46 46
132.000000 -42.000000 102.451439 45 45 45
133.000000 -42.000000 102.096931 44 44 44
134.000000 -42.000000 102.805939 44 44 44
135.000000 -42.000000 101.387924 43 43 43
136.000000 -42.000000 101.387924 44 44 44
137.000000 -42.000000 101.742432 60 60 60
138.000000 -42.000000 103.869453 80 80 80
139.000000 -42.000000 104.223953 84 84 84
140.000000 -42.000000 104.578461 89 89 89
141.000000 -42.000000 105.287460 84 84 84
142.000000 -42.000000 106.705475 77 77 77
143.000000 -42.000000 106.350975 68 68 68
144.000000 -42.000000 106.350975 62 62 62
145.000000 -42.000000 106.350975 70 70 70
146.000000 -42.000000 106.705475 101 101 101
147.000000 -42.000000 107.768990 123 123 123
148.000000 -42.000000 107.414482 122 122 122
149.000000 -42.000000 106.705475 119 119 119
150.000000 -42.000000 106.705475 117 117 117
151.000000 -42.000000 108.832497 116 116 116
152.000000 -42.000000 107.414482 116 116 116
153.000000 -42.000000 104.578461 117 117 117
154.000000 -42.000000 105.641968 116 116 116
71.000000 -43.000000 290.692657 66 66 66
74.000000 -43.000000 150.663879 77 77 77
75.000000 -43.000000 150.663879 85 85 85
76.000000 -43.000000 150.663879 82 82 82
77.000000 -43.000000 152.081894 81 81 81
78.000000 -43.000000 151.727386 81 81 81
79.000000 -43.000000 152.081894 91 91 91
80.000000 -43.000000 152.081894 103 103 103
81.000000 -43.000000 152.081894 112 112 112
82.000000 -43.000000 151.727386 120 120 120
83.000000 -43.000000 151.372879 122 122 122
84.000000 -43.000000 151.018387 117 117 117
85.000000 -43.000000 151.372879 105 105 105
86.000000 -43.000000 151.018387 91 91 91
87.000000 -43.000000 151.018387 92 92 92
88.000000 -43.000000 149.954880 102 102 102
89.000000 -43.000000 149.600372 101 101 101
90.000000 -43.000000 149.600372 93 93 93
91.000000 -43.000000 149.245865 91 91 91
92.000000 -43.000000 148.891357 79 79 79
93.000000 -43.000000 149.245865 75 75 75
94.000000 -43.000000 148.891357 75 75 75
95.000000 -43.000000 149.245865 75 75 75
96.000000 -43.000000 148.182358 75 75 75
97.000000 -43.000000 148.891357 75 75 75
98.000000 -43.000000 148.536865 76 76 76
101.000000 -43.000000 91.816338 76 76 76
102.000000 -43.000000 92.879852 77 77 77
103.000000 -43.000000 93.234352 77 77 77
104.000000 -43.000000 93.234352 76 76 76
105.000000 -43.000000 92.879852 77 77 77
119.000000 -43.000000 60.974560 71 71 71
123.000000 -43.000000 92.170845 67 67 67
124.000000 -43.000000 92.525345 67 67 67
125.000000 -43.000000 93.234352 67 67 67
126.000000 -43.000000 94.652367 65 65 65
127.000000 -43.000000 98.197395 64 64 64
128.000000 -43.000000 101.387924 63 63 63
129.000000 -43.000000 100.678925 62 62 62
130.000000 -43.000000 102.451439 60 60 60
131.000000 -43.000000 103.160446 58 58 58
132.000000 -43.000000 103.160446 58 58 58
133.000000 -43.000000 102.805939 57 57 57
134.000000 -43.000000 103.160446 55 55 55
135.000000 -43.000000 101.387924 53 53 53
136.000000 -43.000000 101.742432 53 53 53
137.000000 -43.000000 102.096931 65 65 65
138.000000 -43.000000 103.869453 82 82 82
139.000000 -43.000000 104.578461 87 87 87
140.000000 -43.000000 104.932961 87 87 87
141.000000 -43.000000 105.641968 76 76 76
142.000000 -43.000000 106.705475 74 74 74
143.000000 -43.000000 106.350975 69 69 69
144.000000 -43.000000 106.350975 63 63 63
145.000000 -43.000000 106.350975 68 68 68
146.000000 -43.000000 107.059982 98 98 98
147.000000 -43.000000 108.123489 121 121 121
148.000000 -43.000000 108.123489 121 121 121
149.000000 -43.000000 107.414482 118 118 118
150.000000 -43.000000 107.059982 116 116 116
151.000000 -43.000000 109.541504 115 115 115
152.000000 -43.000000 108.832497 115 115 115
153.000000 -43.000000 104.932961 115 115 115
154.000000 -43.000000 105.996468 114 114 114
70.000000 -44.000000 286.793121 77 77 77
71.000000 -44.000000 289.274658 79 79 79
72.000000 -44.000000 287.502136 82 82 82
74.000000 -44.000000 150.663879 89 89 89
75.000000 -44.000000 150.663879 92 92 92
76.000000 -44.000000 150.663879 101 101 101
77.000000 -44.000000 152.436401 98 98 98
78.000000 -44.000000 151.727386 90 90 90
79.000000 -44.000000 152.081894 93 93 93
80.000000 -44.000000 152.081894 103 103 103
81.000000 -44.000000 152.081894 117 117 117
82.000000 -44.000000 151.727386 131 131 131
83.000000 -44.000000 151.372879 134 134 134
84.000000 -44.000000 151.018387 124 124 124
85.000000 -44.000000 151.372879 114 114 114
86.000000 -44.000000 151.372879 104 104 104
87.000000 -44.000000 151.018387 107 107 107
88.000000 -44.000000 150.309372 110 110 110
89.000000 -44.000000 149.954880 108 108 108
90.000000 -44.000000 149.600372 102 102 102
91.000000 -44.000000 149.600372 104 104 104
92.000000 -44.000000 149.245865 98 98 98
93.000000 -44.000000 149.600372 93 93 93
94.000000 -44.000000 149.245865 94 94 94
95.000000 -44.000000 149.600372 94 94 94
96.000000 -44.000000 148.536865 95 95 95
97.000000 -44.000000 148.891357 95 95 95
98.000000 -44.000000 148.891357 96 96 96
101.000000 -44.000000 91.461838 97 97 97
102.000000 -44.000000 92.525345 99 99 99
103.000000 -44.000000 93.234352 100 100 100
104.000000 -44.000000 93.234352 99 99 99
105.000000 -44.000000 93.234352 99 99 99
124.000000 -44.000000 92.879852 94 94 94
126.000000 -44.000000 94.652367 92 92 92
127.000000 -44.000000 98.551903 91 91 91
128.000000 -44.000000 101.387924 90 90 90
129.000000 -44.000000 100.324417 89 89 89
130.000000 -44.000000 102.805939 87 87 87
131.000000 -44.000000 103.514946 86 86 86
132.000000 -44.000000 103.869453 85 85 85
136.000000 -44.000000 101.742432 79 79 79
137.000000 -44.000000 102.096931 82 82 82
138.000000 -44.000000 104.223953 84 84 84
140.000000 -44.000000 104.932961 87 87 87
141.000000 -44.000000 105.641968 78 78 78
142.000000 -44.000000 107.059982 76 76 76
143.000000 -44.000000 106.350975 70 70 70
144.000000 -44.000000 106.705475 66 66 66
145.000000 -44.000000 106.705475 66 66 66
146.000000 -44.000000 107.059982 90 90 90
147.000000 -44.000000 108.477989 120 120 120
148.000000 -44.000000 108.477989 120 120 120
149.000000 -44.000000 108.123489 116 116 116
150.000000 -44.000000 107.414482 115 115 115
151.000000 -44.000000 109.896004 114 114 114
152.000000 -44.000000 109.541504 114 114 114
153.000000 -44.000000 105.287460 114 114 114
154.000000 -44.000000 105.996468 114 114 114
68.000000 -45.000000 282.539093 80 80 80
69.000000 -45.000000 285.375122 81 81 81
70.000000 -45.000000 286.793121 82 82 82
71.000000 -45.000000 288.211151 83 83 83
72.000000 -45.000000 287.147614 85 85 85
74.000000 -45.000000 150.663879 92 92 92
75.000000 -45.000000 151.018387 95 95 95
76.000000 -45.000000 151.018387 105 105 105
77.000000 -45.000000 152.790894 105 105 105
78.000000 -45.000000 152.081894 96 96 96
79.000000 -45.000000 152.081894 97 97 97
80.000000 -45.000000 152.081894 106 106 106
81.000000 -45.000000 152.081894 133 133 133
82.000000 -45.000000 151.727386 173 173 173
83.000000 -45.000000 151.372879 170 170 170
84.000000 -45.000000 151.018387 133 133 133
85.000000 -45.000000 151.372879 118 118 118
86.000000 -45.000000 151.018387 109 109 109
87.000000 -45.000000 151.018387 109 109 109
88.000000 -45.000000 149.954880 111 111 111
89.000000 -45.000000 149.600372 113 113 113
90.000000 -45.000000 149.600372 109 109 109
91.000000 -45.000000 149.954880 110 110 110
92.000000 -45.000000 149.245865 107 107 107
93.000000 -45.000000 149.600372 99 99 99
94.000000 -45.000000 149.245865 99 99 99
95.000000 -45.000000 149.600372 100 100 100
96.000000 -45.000000 149.245865 101 101 101
97.000000 -45.000000 149.245865 101 101 101
98.000000 -45.000000 149.245865 102 102 102
100.000000 -45.000000 90.043823 103 103 103
101.000000 -45.000000 90.752831 103 103 103
102.000000 -45.000000 92.170845 104 104 104
103.000000 -45.000000 92.879852 105 105 105
104.000000 -45.000000 93.234352 106 106 106
105.000000 -45.000000 93.234352 106 106 106
126.000000 -45.000000 94.297859 102 102 102
127.000000 -45.000000 97.842896 101 101 101
128.000000 -45.000000 99.969917 101 101 101
129.000000 -45.000000 99.969917 100 100 100
130.000000 -45.000000 103.160446 99 99 99
131.000000 -45.000000 103.869453 98 98 98
138.000000 -45.000000 104.223953 86 86 86
140.000000 -45.000000 105.287460 88 88 88
141.000000 -45.000000 105.641968 83 83 83
142.000000 -45.000000 107.059982 80 80 80
143.000000 -45.000000 106.705475 70 70 70
144.000000 -45.000000 106.705475 69 69 69
145.000000 -45.000000 106.705475 68 68 68
146.000000 -45.000000 107.059982 90 90 90
147.000000 -45.000000 108.832497 120 120 120
148.000000 -45.000000 108.832497 120 120 120
149.000000 -45.000000 108.477989 115 115 115
150.000000 -45.000000 107.768990 114 114 114
151.000000 -45.000000 110.250511 114 114 114
152.000000 -45.000000 109.896004 113 113 113
153.000000 -45.000000 105.641968 113 113 113
68.000000 -46.000000 281.121063 82 82 82
69.000000 -46.000000 285.020599 82 82 82
70.000000 -46.000000 286.793121 83 83 83
71.000000 -46.000000 287.502136 84 84 84
72.000000 -46.000000 286.793121 85 85 85
74.000000 -46.000000 151.018387 93 93 93
75.000000 -46.000000 151.372879 96 96 96
76.000000 -46.000000 151.372879 102 102 102
77.000000 -46.000000 153.499908 103 103 103
78.000000 -46.000000 152.081894 99 99 99
79.000000 -46.000000 152.081894 100 100 100
80.000000 -46.000000 152.081894 110 110 110
81.000000 -46.000000 152.081894 150 150 150
82.000000 -46.000000 152.081894 216 216 216
83.000000 -46.000000 151.727386 204 204 204
84.000000 -46.000000 151.372879 146 146 146
85.000000 -46.000000 151.372879 121 121 121
86.000000 -46.000000 151.372879 112 112 112
87.000000 -46.000000 151.372879 110 110 110
88.000000 -46.000000 150.309372 115 115 115
89.000000 -46.000000 149.954880 122 122 122
90.000000 -46.000000 149.954880 114 114 114
91.000000 -46.000000 149.954880 110 110 110
92.000000 -46.000000 149.600372 112 112 112
93.000000 -46.000000 149.954880 101 101 101
94.000000 -46.000000 149.600372 100 100 100
95.000000 -46.000000 149.954880 101 101 101
96.000000 -46.000000 149.600372 101 101 101
97.000000 -46.000000 149.600372 102 102 102
98.000000 -46.000000 149.600372 103 103 103
100.000000 -46.000000 90.043823 104 104 104
101.000000 -46.000000 90.752831 105 105 105
102.000000 -46.000000 92.170845 105 105 105
103.000000 -46.000000 92.879852 106 106 106
104.000000 -46.000000 92.879852 107 107 107
105.000000 -46.000000 92.879852 108 108 108
127.000000 -46.000000 95.006866 105 105 105
129.000000 -46.000000 99.260910 102 102 102
130.000000 -46.000000 103.514946 101 101 101
131.000000 -46.000000 104.578461 100 100 100
141.000000 -46.000000 105.996468 86 86 86
144.000000 -46.000000 106.705475 64 64 64
145.000000 -46.000000 106.705475 64 64 64
146.000000 -46.000000 107.414482 91 91 91
147.000000 -46.000000 108.832497 119 119 119
148.000000 -46.000000 108.832497 116 116 116
149.000000 -46.000000 108.477989 103 103 103
150.000000 -46.000000 108.123489 101 101 101
151.000000 -46.000000 110.250511 101 101 101
152.000000 -46.000000 110.250511 100 100 100
68.000000 -47.000000 280.766571 82 82 82
69.000000 -47.000000 283.602600 83 83 83
70.000000 -47.000000 286.084106 84 84 84
71.000000 -47.000000 286.438629 85 85 85
72.000000 -47.000000 286.084106 86 86 86
73.000000 -47.000000 285.729614 91 91 91
74.000000 -47.000000 151.372879 94 94 94
75.000000 -47.000000 151.727386 98 98 98
76.000000 -47.000000 151.727386 103 103 103
77.000000 -47.000000 153.499908 102 102 102
78.000000 -47.000000 152.436401 98 98 98
79.000000 -47.000000 152.436401 101 101 101
80.000000 -47.000000 152.081894 112 112 112
81.000000 -47.000000 152.436401 155 155 155
82.000000 -47.000000 152.081894 221 221 221
83.000000 -47.000000 151.727386 211 211 211
84.000000 -47.000000 151.372879 159 159 159
85.000000 -47.000000 151.372879 124 124 124
86.000000 -47.000000 151.372879 112 112 112
87.000000 -47.000000 151.372879 111 111 111
88.000000 -47.000000 150.309372 120 120 120
89.000000 -47.000000 150.309372 128 128 128
90.000000 -47.000000 150.309372 118 118 118
91.000000 -47.000000 150.309372 110 110 110
92.000000 -47.000000 149.600372 112 112 112
93.000000 -47.000000 149.954880 103 103 103
94.000000 -47.000000 149.954880 100 100 100
95.000000 -47.000000 149.954880 101 101 101
96.000000 -47.000000 149.954880 101 101 101
97.000000 -47.000000 149.954880 102 102 102
98.000000 -47.000000 149.954880 102 102 102
99.000000 -47.000000 92.170845 102 102 102
100.000000 -47.000000 91.107330 104 104 104
101.000000 -47.000000 90.752831 105 105 105
102.000000 -47.000000 91.816338 105 105 105
103.000000 -47.000000 92.525345 106 106 106
104.000000 -47.000000 92.879852 107 107 107
117.000000 -47.000000 46.439926 108 108 108
123.000000 -47.000000 71.609657 106 106 106
124.000000 -47.000000 71.255150 106 106 106
125.000000 -47.000000 75.863693 105 105 105
129.000000 -47.000000 98.551903 101 101 101
130.000000 -47.000000 103.869453 100 100 100
145.000000 -47.000000 106.705475 63 63 63
146.000000 -47.000000 107.414482 92 92 92
147.000000 -47.000000 108.832497 119 119 119
148.000000 -47.000000 108.832497 111 111 111
149.000000 -47.000000 108.477989 85 85 85
150.000000 -47.000000 108.123489 77 77 77
151.000000 -47.000000 110.250511 76 76 76
152.000000 -47.000000 110.250511 76 76 76
68.000000 -48.000000 280.766571 83 83 83
69.000000 -48.000000 282.539093 84 84 84
70.000000 -48.000000 285.729614 84 84 84
71.000000 -48.000000 285.729614 86 86 86
72.000000 -48.000000 285.729614 88 88 88
73.000000 -48.000000 285.375122 92 92 92
74.000000 -48.000000 151.727386 94 94 94
75.000000 -48.000000 151.727386 99 99 99
76.000000 -48.000000 152.081894 104 104 104
77.000000 -48.000000 153.854401 100 100 100
78.000000 -48.000000 152.436401 97 97 97
79.000000 -48.000000 152.436401 100 100 100
80.000000 -48.000000 152.436401 111 111 111
81.000000 -48.000000 152.436401 148 148 148
82.000000 -48.000000 152.436401 210 210 210
83.000000 -48.000000 152.081894 197 197 197
84.000000 -48.000000 151.727386 141 141 141
85.000000 -48.000000 151.727386 118 118 118
86.000000 -48.000000 151.727386 110 110 110
87.000000 -48.000000 151.727386 108 108 108
88.000000 -48.000000 150.663879 114 114 114
89.000000 -48.000000 150.663879 120 120 120
90.000000 -48.000000 150.663879 114 114 114
91.000000 -48.000000 150.663879 107 107 107
92.000000 -48.000000 150.309372 106 106 106
93.000000 -48.000000 150.309372 102 102 102
94.000000 -48.000000 150.309372 101 101 101
95.000000 -48.000000 150.309372 101 101 101
96.000000 -48.000000 149.954880 101 101 101
97.000000 -48.000000 149.954880 101 101 101
98.000000 -48.000000 150.309372 101 101 101
99.000000 -48.000000 92.525345 102 102 102
100.000000 -48.000000 91.816338 103 103 103
101.000000 -48.000000 91.461838 103 103 103
102.000000 -48.000000 92.170845 103 103 103
103.000000 -48.000000 92.525345 105 105 105
104.000000 -48.000000 92.879852 106 106 106
105.000000 -48.000000 93.234352 106 106 106
117.000000 -48.000000 46.439926 107 107 107
118.000000 -48.000000 48.566944 107 107 107
123.000000 -48.000000 71.964157 106 106 106
124.000000 -48.000000 70.900650 105 105 105
125.000000 -48.000000 75.863693 104 104 104
128.000000 -48.000000 93.588860 103 103 103
129.000000 -48.000000 98.197395 101 101 101
130.000000 -48.000000 102.805939 100 100 100
136.000000 -48.000000 0.000000 94 94 94
137.000000 -48.000000 0.000000 95 95 95
144.000000 -48.000000 106.705475 60 60 60
145.000000 -48.000000 106.705475 62 62 62
146.000000 -48.000000 107.414482 92 92 92
147.000000 -48.000000 108.832497 120 120 120
148.000000 -48.000000 108.832497 117 117 117
149.000000 -48.000000 108.477989 105 105 105
150.000000 -48.000000 108.123489 100 100 100
151.000000 -48.000000 110.250511 98 98 98
152.000000 -48.000000 110.250511 98 98 98
68.000000 -49.000000 280.766571 83 83 83
69.000000 -49.000000 283.248077 84 84 84
70.000000 -49.000000 285.375122 85 85 85
71.000000 -49.000000 285.729614 86 86 86
72.000000 -49.000000 285.375122 90 90 90
73.000000 -49.000000 285.020599 98 98 98
74.000000 -49.000000 152.081894 100 100 100
75.000000 -49.000000 152.436401 104 104 104
76.000000 -49.000000 152.436401 107 107 107
77.000000 -49.000000 154.208908 100 100 100
78.000000 -49.000000 152.790894 95 95 95
79.000000 -49.000000 152.790894 99 99 99
80.000000 -49.000000 152.436401 108 108 108
81.000000 -49.000000 152.790894 128 128 128
82.000000 -49.000000 152.436401 173 173 173
83.000000 -49.000000 152.436401 181 181 181
84.000000 -49.000000 151.727386 128 128 128
85.000000 -49.000000 152.081894 112 112 112
86.000000 -49.000000 152.081894 109 109 109
87.000000 -49.000000 152.081894 106 106 106
88.000000 -49.000000 150.663879 108 108 108
89.000000 -49.000000 150.663879 112 112 112
90.000000 -49.000000 150.663879 109 109 109
91.000000 -49.000000 150.663879 105 105 105
92.000000 -49.000000 150.663879 108 108 108
93.000000 -49.000000 150.663879 105 105 105
94.000000 -49.000000 150.663879 100 100 100
95.000000 -49.000000 150.663879 100 100 100
96.000000 -49.000000 149.954880 100 100 100
97.000000 -49.000000 149.954880 100 100 100
98.000000 -49.000000 150.309372 100 100 100
99.000000 -49.000000 93.234352 100 100 100
100.000000 -49.000000 92.525345 102 102 102
101.000000 -49.000000 92.170845 103 103 103
102.000000 -49.000000 92.525345 104 104 104
103.000000 -49.000000 92.879852 105 105 105
104.000000 -49.000000 93.234352 105 105 105
105.000000 -49.000000 93.234352 106 106 106
112.000000 -49.000000 60.620056 107 107 107
117.000000 -49.000000 46.439926 107 107 107
118.000000 -49.000000 48.921448 107 107 107
125.000000 -49.000000 75.509193 104 104 104
128.000000 -49.000000 93.234352 102 102 102
129.000000 -49.000000 97.488396 101 101 101
130.000000 -49.000000 101.387924 100 100 100
131.000000 -49.000000 104.578461 99 99 99
136.000000 -49.000000 0.000000 94 94 94
137.000000 -49.000000 0.000000 96 96 96
144.000000 -49.000000 106.350975 60 60 60
145.000000 -49.000000 106.705475 65 65 65
146.000000 -49.000000 107.059982 93 93 93
147.000000 -49.000000 108.477989 119 119 119
148.000000 -49.000000 108.477989 119 119 119
149.000000 -49.000000 108.123489 112 112 112
150.000000 -49.000000 107.768990 109 109 109
151.000000 -49.000000 110.250511 108 108 108
152.000000 -49.000000 110.250511 108 108 108
68.000000 -50.000000 280.766571 83 83 83
69.000000 -50.000000 283.248077 84 84 84
70.000000 -50.000000 285.020599 85 85 85
71.000000 -50.000000 285.020599 87 87 87
72.000000 -50.000000 284.666107 92 92 92
73.000000 -50.000000 284.311615 99 99 99
74.000000 -50.000000 152.081894 104 104 104
75.000000 -50.000000 152.436401 111 111 111
76.000000 -50.000000 152.436401 106 106 106
77.000000 -50.000000 154.208908 100 100 100
78.000000 -50.000000 152.790894 97 97 97
79.000000 -50.000000 152.790894 101 101 101
80.000000 -50.000000 152.436401 110 110 110
81.000000 -50.000000 152.790894 130 130 130
82.000000 -50.000000 152.790894 170 170 170
83.000000 -50.000000 152.436401 173 173 173
84.000000 -50.000000 152.081894 128 128 128
85.000000 -50.000000 152.081894 112 112 112
86.000000 -50.000000 152.081894 109 109 109
87.000000 -50.000000 152.081894 106 106 106
88.000000 -50.000000 151.018387 107 107 107
89.000000 -50.000000 151.018387 113 113 113
90.000000 -50.000000 151.018387 111 111 111
91.000000 -50.000000 151.018387 108 108 108
92.000000 -50.000000 150.663879 113 113 113
93.000000 -50.000000 150.663879 108 108 108
94.000000 -50.000000 150.663879 98 98 98
95.000000 -50.000000 150.663879 97 97 97
96.000000 -50.000000 150.309372 97 97 97
97.000000 -50.000000 150.309372 98 98 98
98.000000 -50.000000 150.309372 98 98 98
99.000000 -50.000000 93.588860 100 100 100
100.000000 -50.000000 93.234352 102 102 102
101.000000 -50.000000 92.525345 102 102 102
102.000000 -50.000000 92.879852 104 104 104
103.000000 -50.000000 92.879852 105 105 105
104.000000 -50.000000 93.234352 105 105 105
105.000000 -50.000000 93.234352 105 105 105
106.000000 -50.000000 92.879852 106 106 106
107.000000 -50.000000 92.170845 107 107 107
112.000000 -50.000000 61.329060 107 107 107
117.000000 -50.000000 46.439926 107 107 107
125.000000 -50.000000 75.509193 103 103 103
128.000000 -50.000000 92.879852 101 101 101
129.000000 -50.000000 96.779388 100 100 100
130.000000 -50.000000 100.324417 99 99 99
131.000000 -50.000000 104.578461 98 98 98
135.000000 -50.000000 0.000000 93 93 93
136.000000 -50.000000 0.000000 93 93 93
137.000000 -50.000000 0.000000 93 93 93
141.000000 -50.000000 105.996468 80 80 80
143.000000 -50.000000 106.350975 66 66 66
144.000000 -50.000000 106.350975 62 62 62
145.000000 -50.000000 106.705475 70 70 70
146.000000 -50.000000 107.059982 96 96 96
147.000000 -50.000000 108.123489 119 119 119
148.000000 -50.000000 107.768990 119 119 119
149.000000 -50.000000 107.768990 112 112 112
150.000000 -50.000000 107.768990 109 109 109
151.000000 -50.000000 110.250511 109 109 109
152.000000 -50.000000 109.896004 110 110 110
68.000000 -51.000000 280.412079 84 84 84
69.000000 -51.000000 282.539093 85 85 85
70.000000 -51.000000 284.666107 86 86 86
71.000000 -51.000000 284.311615 87 87 87
72.000000 -51.000000 284.311615 91 91 91
74.000000 -51.000000 152.081894 101 101 101
75.000000 -51.000000 152.081894 112 112 112
76.000000 -51.000000 152.436401 101 101 101
77.000000 -51.000000 153.854401 97 97 97
78.000000 -51.000000 152.790894 97 97 97
79.000000 -51.000000 152.436401 101 101 101
80.000000 -51.000000 152.436401 109 109 109
81.000000 -51.000000 152.790894 129 129 129
82.000000 -51.000000 152.790894 154 154 154
83.000000 -51.000000 152.436401 153 153 153
84.000000 -51.000000 152.081894 127 127 127
85.000000 -51.000000 152.081894 113 113 113
86.000000 -51.000000 152.081894 108 108 108
87.000000 -51.000000 152.081894 105 105 105
88.000000 -51.000000 151.018387 105 105 105
89.000000 -51.000000 151.372879 111 111 111
90.000000 -51.000000 151.372879 113 113 113
91.000000 -51.000000 151.372879 111 111 111
92.000000 -51.000000 151.018387 109 109 109
93.000000 -51.000000 151.018387 102 102 102
94.000000 -51.000000 151.018387 97 97 97
95.000000 -51.000000 150.663879 95 95 95
96.000000 -51.000000 150.663879 95 95 95
97.000000 -51.000000 150.663879 96 96 96
98.000000 -51.000000 150.663879 97 97 97
99.000000 -51.000000 93.588860 98 98 98
100.000000 -51.000000 93.234352 100 100 100
101.000000 -51.000000 92.525345 101 101 101
102.000000 -51.000000 92.879852 103 103 103
103.000000 -51.000000 92.525345 104 104 104
104.000000 -51.000000 93.234352 104 104 104
105.000000 -51.000000 93.234352 104 104 104
106.000000 -51.000000 92.879852 105 105 105
107.000000 -51.000000 92.170845 106 106 106
117.000000 -51.000000 46.439926 106 106 106
124.000000 -51.000000 70.900650 103 103 103
125.000000 -51.000000 75.154686 103 103 103
127.000000 -51.000000 87.207802 102 102 102
128.000000 -51.000000 92.525345 102 102 102
129.000000 -51.000000 95.715874 101 101 101
130.000000 -51.000000 99.969917 99 99 99
131.000000 -51.000000 104.223953 98 98 98
135.000000 -51.000000 0.000000 93 93 93
136.000000 -51.000000 0.000000 92 92 92
137.000000 -51.000000 0.000000 91 91 91
141.000000 -51.000000 105.641968 80 80 80
142.000000 -51.000000 107.414482 75 75 75
143.000000 -51.000000 105.996468 67 67 67
144.000000 -51.000000 106.350975 60 60 60
145.000000 -51.000000 106.350975 64 64 64
146.000000 -51.000000 106.705475 93 93 93
147.000000 -51.000000 107.768990 117 117 117
148.000000 -51.000000 107.414482 118 118 118
149.000000 -51.000000 107.414482 113 113 113
150.000000 -51.000000 107.768990 111 111 111
151.000000 -51.000000 110.250511 111 111 111
152.000000 -51.000000 109.896004 112 112 112
68.000000 -52.000000 280.057556 84 84 84
69.000000 -52.000000 281.830078 85 85 85
70.000000 -52.000000 284.311615 85 85 85
71.000000 -52.000000 283.957092 86 86 86
72.000000 -52.000000 283.248077 89 89 89
74.000000 -52.000000 151.727386 96 96 96
75.000000 -52.000000 152.081894 100 100 100
76.000000 -52.000000 152.436401 98 98 98
77.000000 -52.000000 153.854401 97 97 97
78.000000 -52.000000 152.436401 97 97 97
79.000000 -52.000000 152.436401 100 100 100
80.000000 -52.000000 152.436401 107 107 107
81.000000 -52.000000 152.436401 123 123 123
82.000000 -52.000000 152.790894 144 144 144
83.000000 -52.000000 152.436401 141 141 141
84.000000 -52.000000 152.081894 122 122 122
85.000000 -52.000000 152.081894 113 113 113
86.000000 -52.000000 152.081894 110 110 110
87.000000 -52.000000 152.081894 108 108 108
88.000000 -52.000000 151.018387 105 105 105
89.000000 -52.000000 151.372879 107 107 107
90.000000 -52.000000 151.372879 110 110 110
91.000000 -52.000000 151.372879 107 107 107
92.000000 -52.000000 151.018387 103 103 103
93.000000 -52.000000 151.018387 99 99 99
94.000000 -52.000000 151.018387 95 95 95
95.000000 -52.000000 151.018387 94 94 94
96.000000 -52.000000 151.018387 93 93 93
97.000000 -52.000000 151.018387 94 94 94
98.000000 -52.000000 151.018387 96 96 96
99.000000 -52.000000 93.588860 98 98 98
100.000000 -52.000000 93.234352 99 99 99
101.000000 -52.000000 92.879852 100 100 100
102.000000 -52.000000 92.525345 102 102 102
103.000000 -52.000000 92.170845 103 103 103
104.000000 -52.000000 92.879852 102 102 102
105.000000 -52.000000 93.234352 103 103 103
106.000000 -52.000000 92.879852 104 104 104
107.000000 -52.000000 91.816338 105 105 105
108.000000 -52.000000 91.816338 106 106 106
127.000000 -52.000000 87.562302 102 102 102
128.000000 -52.000000 92.170845 101 101 101
129.000000 -52.000000 95.361374 100 100 100
130.000000 -52.000000 99.260910 98 98 98
131.000000 -52.000000 103.514946 97 97 97
136.000000 -52.000000 0.000000 92 92 92
141.000000 -52.000000 104.932961 71 71 71
142.000000 -52.000000 106.705475 66 66 66
143.000000 -52.000000 105.641968 59 59 59
144.000000 -52.000000 105.996468 55 55 55
145.000000 -52.000000 105.996468 58 58 58
146.000000 -52.000000 106.350975 90 90 90
147.000000 -52.000000 107.059982 117 117 117
148.000000 -52.000000 107.059982 118 118 118
149.000000 -52.000000 106.705475 115 115 115
150.000000 -52.000000 107.768990 113 113 113
151.000000 -52.000000 110.250511 112 112 112
152.000000 -52.000000 109.896004 112 112 112
68.000000 -53.000000 280.057556 84 84 84
69.000000 -53.000000 281.830078 84 84 84
70.000000 -53.000000 283.957092 85 85 85
71.000000 -53.000000 283.602600 87 87 87
73.000000 -53.000000 152.081894 92 92 92
74.000000 -53.000000 151.727386 96 96 96
75.000000 -53.000000 152.081894 98 98 98
76.000000 -53.000000 152.790894 97 97 97
77.000000 -53.000000 153.854401 97 97 97
78.000000 -53.000000 152.436401 97 97 97
79.000000 -53.000000 152.436401 99 99 99
80.000000 -53.000000 152.081894 104 104 104
81.000000 -53.000000 152.436401 116 116 116
82.000000 -53.000000 152.790894 130 130 130
83.000000 -53.000000 152.436401 128 128 128
84.000000 -53.000000 152.081894 117 117 117
85.000000 -53.000000 152.081894 112 112 112
86.000000 -53.000000 152.081894 109 109 109
87.000000 -53.000000 151.727386 108 108 108
88.000000 -53.000000 151.018387 104 104 104
89.000000 -53.000000 151.372879 105 105 105
90.000000 -53.000000 151.372879 105 105 105
91.000000 -53.000000 151.372879 102 102 102
92.000000 -53.000000 151.372879 100 100 100
93.000000 -53.000000 151.018387 98 98 98
94.000000 -53.000000 151.018387 94 94 94
95.000000 -53.000000 151.372879 93 93 93
96.000000 -53.000000 151.372879 92 92 92
97.000000 -53.000000 151.372879 93 93 93
98.000000 -53.000000 151.372879 95 95 95
99.000000 -53.000000 93.943359 97 97 97
100.000000 -53.000000 93.943359 99 99 99
101.000000 -53.000000 93.588860 100 100 100
102.000000 -53.000000 92.879852 101 101 101
103.000000 -53.000000 92.170845 102 102 102
104.000000 -53.000000 92.525345 102 102 102
105.000000 -53.000000 92.525345 103 103 103
106.000000 -53.000000 92.525345 104 104 104
107.000000 -53.000000 91.816338 105 105 105
108.000000 -53.000000 91.816338 105 105 105
109.000000 -53.000000 92.170845 105 105 105
110.000000 -53.000000 92.879852 106 106 106
128.000000 -53.000000 92.525345 102 102 102
129.000000 -53.000000 95.361374 100 100 100
130.000000 -53.000000 99.260910 98 98 98
131.000000 -53.000000 101.742432 97 97 97
140.000000 -53.000000 102.451439 53 53 53
141.000000 -53.000000 104.223953 48 48 48
142.000000 -53.000000 105.641968 44 44 44
143.000000 -53.000000 105.287460 42 42 42
144.000000 -53.000000 105.287460 43 43 43
145.000000 -53.000000 105.641968 51 51 51
146.000000 -53.000000 105.996468 88 88 88
147.000000 -53.000000 106.350975 117 117 117
148.000000 -53.000000 106.350975 117 117 117
149.000000 -53.000000 106.350975 114 114 114
150.000000 -53.000000 107.414482 113 113 113
151.000000 -53.000000 109.896004 112 112 112
68.000000 -54.000000 280.057556 85 85 85
70.000000 -54.000000 283.602600 85 85 85
73.000000 -54.000000 152.081894 95 95 95
74.000000 -54.000000 151.727386 100 100 100
75.000000 -54.000000 152.081894 101 101 101
76.000000 -54.000000 153.145401 97 97 97
77.000000 -54.000000 153.854401 96 96 96
78.000000 -54.000000 152.436401 96 96 96
79.000000 -54.000000 152.436401 98 98 98
80.000000 -54.000000 152.081894 102 102 102
81.000000 -54.000000 152.436401 111 111 111
82.000000 -54.000000 153.145401 119 119 119
83.000000 -54.000000 152.436401 119 119 119
84.000000 -54.000000 152.081894 113 113 113
85.000000 -54.000000 152.081894 110 110 110
86.000000 -54.000000 152.081894 107 107 107
87.000000 -54.000000 151.727386 106 106 106
88.000000 -54.000000 151.018387 103 103 103
89.000000 -54.000000 151.727386 102 102 102
90.000000 -54.000000 151.727386 102 102 102
91.000000 -54.000000 151.727386 99 99 99
92.000000 -54.000000 151.372879 99 99 99
93.000000 -54.000000 151.018387 101 101 101
94.000000 -54.000000 151.018387 96 96 96
95.000000 -54.000000 151.372879 93 93 93
96.000000 -54.000000 151.372879 92 92 92
97.000000 -54.000000 151.372879 93 93 93
99.000000 -54.000000 94.297859 96 96 96
100.000000 -54.000000 94.297859 99 99 99
101.000000 -54.000000 93.943359 100 100 100
102.000000 -54.000000 93.588860 101 101 101
103.000000 -54.000000 92.170845 103 103 103
104.000000 -54.000000 92.525345 104 104 104
105.000000 -54.000000 92.879852 104 104 104
106.000000 -54.000000 93.234352 104 104 104
107.000000 -54.000000 92.525345 105 105 105
108.000000 -54.000000 92.525345 105 105 105
109.000000 -54.000000 92.879852 104 104 104
110.000000 -54.000000 93.234352 105 105 105
128.000000 -54.000000 93.234352 101 101 101
129.000000 -54.000000 95.715874 100 100 100
130.000000 -54.000000 98.906403 99 99 99
131.000000 -54.000000 99.969917 97 97 97
132.000000 -54.000000 99.969917 96 96 96
136.000000 -54.000000 95.361374 90 90 90
137.000000 -54.000000 98.906403 81 81 81
140.000000 -54.000000 102.096931 45 45 45
141.000000 -54.000000 103.869453 39 39 39
142.000000 -54.000000 105.641968 36 36 36
143.000000 -54.000000 105.287460 36 36 36
144.000000 -54.000000 105.287460 38 38 38
145.000000 -54.000000 105.641968 48 48 48
146.000000 -54.000000 105.641968 87 87 87
147.000000 -54.000000 105.996468 117 117 117
148.000000 -54.000000 105.996468 117 117 117
149.000000 -54.000000 105.996468 114 114 114
150.000000 -54.000000 107.059982 113 113 113
151.000000 -54.000000 109.541504 112 112 112
70.000000 -55.000000 283.248077 82 82 82
73.000000 -55.000000 151.727386 91 91 91
74.000000 -55.000000 151.727386 98 98 98
75.000000 -55.000000 152.436401 99 99 99
76.000000 -55.000000 153.145401 95 95 95
77.000000 -55.000000 153.854401 94 94 94
78.000000 -55.000000 152.436401 95 95 95
79.000000 -55.000000 152.436401 100 100 100
80.000000 -55.000000 152.081894 108 108 108
81.000000 -55.000000 152.790894 120 120 120
82.000000 -55.000000 153.145401 123 123 123
83.000000 -55.000000 152.790894 115 115 115
84.000000 -55.000000 152.081894 109 109 109
85.000000 -55.000000 152.436401 108 108 108
86.000000 -55.000000 152.081894 106 106 106
87.000000 -55.000000 151.727386 103 103 103
88.000000 -55.000000 151.018387 100 100 100
89.000000 -55.000000 151.727386 101 101 101
90.000000 -55.000000 151.727386 102 102 102
91.000000 -55.000000 151.727386 101 101 101
92.000000 -55.000000 151.372879 102 102 102
93.000000 -55.000000 151.018387 101 101 101
94.000000 -55.000000 151.018387 96 96 96
95.000000 -55.000000 151.372879 92 92 92
96.000000 -55.000000 151.372879 92 92 92
97.000000 -55.000000 151.727386 92 92 92
99.000000 -55.000000 94.652367 96 96 96
100.000000 -55.000000 94.652367 99 99 99
101.000000 -55.000000 94.297859 101 101 101
102.000000 -55.000000 93.943359 102 102 102
103.000000 -55.000000 92.525345 104 104 104
104.000000 -55.000000 92.525345 105 105 105
105.000000 -55.000000 92.879852 104 104 104
106.000000 -55.000000 93.588860 104 104 104
107.000000 -55.000000 92.525345 105 105 105
108.000000 -55.000000 92.525345 104 104 104
109.000000 -55.000000 92.879852 105 105 105
110.000000 -55.000000 93.234352 106 106 106
128.000000 -55.000000 93.234352 99 99 99
129.000000 -55.000000 95.006866 99 99 99
130.000000 -55.000000 98.197395 98 98 98
131.000000 -55.000000 99.260910 96 96 96
133.000000 -55.000000 97.488396 95 95 95
136.000000 -55.000000 96.070381 90 90 90
137.000000 -55.000000 98.906403 84 84 84
138.000000 -55.000000 103.160446 73 73 73
139.000000 -55.000000 101.742432 64 64 64
140.000000 -55.000000 102.096931 52 52 52
141.000000 -55.000000 103.869453 43 43 43
142.000000 -55.000000 105.641968 40 40 40
143.000000 -55.000000 105.287460 39 39 39
144.000000 -55.000000 105.641968 41 41 41
145.000000 -55.000000 105.641968 49 49 49
146.000000 -55.000000 105.996468 88 88 88
147.000000 -55.000000 106.350975 116 116 116
148.000000 -55.000000 106.350975 116 116 116
149.000000 -55.000000 106.350975 112 112 112
150.000000 -55.000000 107.059982 112 112 112
151.000000 -55.000000 109.541504 111 111 111
73.000000 -56.000000 151.727386 84 84 84
74.000000 -56.000000 151.727386 86 86 86
75.000000 -56.000000 152.436401 89 89 89
76.000000 -56.000000 153.499908 89 89 89
77.000000 -56.000000 153.854401 89 89 89
78.000000 -56.000000 152.790894 92 92 92
79.000000 -56.000000 152.436401 98 98 98
80.000000 -56.000000 152.436401 107 107 107
81.000000 -56.000000 152.790894 112 112 112
82.000000 -56.000000 153.145401 111 111 111
83.000000 -56.000000 152.790894 106 106 106
84.000000 -56.000000 152.081894 102 102 102
85.000000 -56.000000 152.436401 100 100 100
86.000000 -56.000000 152.081894 100 100 100
87.000000 -56.000000 151.372879 99 99 99
88.000000 -56.000000 151.018387 96 96 96
89.000000 -56.000000 151.727386 98 98 98
90.000000 -56.000000 151.727386 103 103 103
91.000000 -56.000000 151.727386 104 104 104
92.000000 -56.000000 151.372879 100 100 100
93.000000 -56.000000 151.372879 96 96 96
94.000000 -56.000000 151.018387 89 89 89
95.000000 -56.000000 151.372879 82 82 82
96.000000 -56.000000 151.372879 81 81 81
99.000000 -56.000000 95.006866 87 87 87
100.000000 -56.000000 95.006866 90 90 90
101.000000 -56.000000 94.652367 93 93 93
