ply
		format ascii 1.0
		element vertex 3650
		property float x
		property float y
		property float z
		property uchar red
		property uchar green
		property uchar blue
		end_header
119.000000 -12.000000 132.938721 157 157 157
120.000000 -12.000000 131.875214 158 158 158
131.000000 -12.000000 67.710121 163 163 163
132.000000 -12.000000 68.419128 163 163 163
133.000000 -12.000000 68.419128 165 165 165
134.000000 -12.000000 69.837135 164 164 164
135.000000 -12.000000 71.255150 161 161 161
137.000000 -12.000000 83.662766 154 154 154
138.000000 -12.000000 88.271309 153 153 153
139.000000 -12.000000 92.879852 148 148 148
140.000000 -12.000000 97.842896 144 144 144
141.000000 -12.000000 103.514946 139 139 139
142.000000 -12.000000 109.186996 135 135 135
146.000000 -12.000000 131.875214 117 117 117
147.000000 -12.000000 135.420242 112 112 112
148.000000 -12.000000 135.774750 84 84 84
149.000000 -12.000000 137.192749 45 45 45
150.000000 -12.000000 138.965271 38 38 38
151.000000 -12.000000 140.737793 35 35 35
152.000000 -12.000000 140.383286 32 32 32
153.000000 -12.000000 141.446793 30 30 30
154.000000 -12.000000 141.801300 32 32 32
68.000000 -13.000000 110.959518 83 83 83
69.000000 -13.000000 110.605011 85 85 85
70.000000 -13.000000 110.605011 85 85 85
71.000000 -13.000000 0.000000 86 86 86
72.000000 -13.000000 0.000000 87 87 87
73.000000 -13.000000 0.000000 88 88 88
74.000000 -13.000000 0.000000 89 89 89
75.000000 -13.000000 0.000000 90 90 90
91.000000 -13.000000 122.658119 111 111 111
97.000000 -13.000000 129.393677 120 120 120
98.000000 -13.000000 129.393677 123 123 123
99.000000 -13.000000 128.684677 123 123 123
105.000000 -13.000000 127.621170 132 132 132
106.000000 -13.000000 126.912163 135 135 135
107.000000 -13.000000 126.557655 137 137 137
108.000000 -13.000000 125.848648 139 139 139
109.000000 -13.000000 124.785141 141 141 141
110.000000 -13.000000 127.975670 142 142 142
111.000000 -13.000000 128.330170 143 143 143
112.000000 -13.000000 129.039185 144 144 144
131.000000 -13.000000 68.773628 157 157 157
132.000000 -13.000000 69.128136 159 159 159
133.000000 -13.000000 68.773628 160 160 160
134.000000 -13.000000 70.191643 160 160 160
135.000000 -13.000000 71.964157 157 157 157
137.000000 -13.000000 84.017265 152 152 152
138.000000 -13.000000 87.916801 151 151 151
139.000000 -13.000000 92.879852 146 146 146
140.000000 -13.000000 98.197395 143 143 143
141.000000 -13.000000 103.869453 139 139 139
142.000000 -13.000000 109.541504 135 135 135
146.000000 -13.000000 131.875214 115 115 115
147.000000 -13.000000 135.774750 109 109 109
148.000000 -13.000000 137.192749 82 82 82
149.000000 -13.000000 137.901764 46 46 46
150.000000 -13.000000 139.319778 42 42 42
151.000000 -13.000000 140.737793 39 39 39
152.000000 -13.000000 140.737793 33 33 33
153.000000 -13.000000 141.801300 30 30 30
154.000000 -13.000000 142.155807 33 33 33
69.000000 -14.000000 110.605011 84 84 84
70.000000 -14.000000 110.605011 84 84 84
72.000000 -14.000000 0.000000 86 86 86
73.000000 -14.000000 0.000000 87 87 87
74.000000 -14.000000 0.000000 89 89 89
75.000000 -14.000000 0.000000 90 90 90
79.000000 -14.000000 38.286350 94 94 94
80.000000 -14.000000 41.122375 94 94 94
90.000000 -14.000000 123.367126 109 109 109
91.000000 -14.000000 124.076134 110 110 110
97.000000 -14.000000 129.039185 119 119 119
99.000000 -14.000000 128.330170 122 122 122
106.000000 -14.000000 125.848648 134 134 134
107.000000 -14.000000 125.494148 136 136 136
108.000000 -14.000000 125.139648 138 138 138
109.000000 -14.000000 124.785141 139 139 139
110.000000 -14.000000 127.975670 141 141 141
111.000000 -14.000000 128.684677 142 142 142
132.000000 -14.000000 69.837135 157 157 157
133.000000 -14.000000 69.482635 157 157 157
134.000000 -14.000000 70.191643 155 155 155
135.000000 -14.000000 71.964157 154 154 154
137.000000 -14.000000 85.080780 149 149 149
138.000000 -14.000000 87.916801 148 148 148
139.000000 -14.000000 93.234352 145 145 145
140.000000 -14.000000 98.197395 141 141 141
141.000000 -14.000000 103.869453 138 138 138
142.000000 -14.000000 109.541504 134 134 134
146.000000 -14.000000 132.229706 115 115 115
147.000000 -14.000000 136.483749 111 111 111
148.000000 -14.000000 138.256271 85 85 85
149.000000 -14.000000 138.256271 47 47 47
150.000000 -14.000000 139.674271 43 43 43
151.000000 -14.000000 141.446793 39 39 39
152.000000 -14.000000 141.092285 34 34 34
153.000000 -14.000000 142.510300 31 31 31
154.000000 -14.000000 142.510300 34 34 34
69.000000 -15.000000 110.959518 84 84 84
70.000000 -15.000000 111.314018 85 85 85
72.000000 -15.000000 0.000000 86 86 86
73.000000 -15.000000 0.000000 87 87 87
78.000000 -15.000000 38.640854 93 93 93
79.000000 -15.000000 38.995358 94 94 94
80.000000 -15.000000 41.122375 94 94 94
91.000000 -15.000000 124.785141 108 108 108
106.000000 -15.000000 125.139648 131 131 131
107.000000 -15.000000 124.785141 134 134 134
108.000000 -15.000000 124.785141 136 136 136
109.000000 -15.000000 124.076134 136 136 136
110.000000 -15.000000 127.621170 137 137 137
132.000000 -15.000000 70.191643 142 142 142
133.000000 -15.000000 69.837135 140 140 140
134.000000 -15.000000 70.546143 138 138 138
137.000000 -15.000000 85.435280 131 131 131
138.000000 -15.000000 87.916801 130 130 130
139.000000 -15.000000 93.234352 127 127 127
140.000000 -15.000000 98.197395 124 124 124
141.000000 -15.000000 103.869453 120 120 120
142.000000 -15.000000 109.541504 116 116 116
146.000000 -15.000000 132.229706 100 100 100
147.000000 -15.000000 137.192749 101 101 101
148.000000 -15.000000 138.965271 78 78 78
149.000000 -15.000000 138.610764 46 46 46
150.000000 -15.000000 140.028778 42 42 42
151.000000 -15.000000 141.801300 38 38 38
152.000000 -15.000000 141.446793 35 35 35
153.000000 -15.000000 142.864807 32 32 32
154.000000 -15.000000 143.219315 34 34 34
68.000000 -16.000000 111.668526 82 82 82
69.000000 -16.000000 111.668526 84 84 84
70.000000 -16.000000 112.023026 86 86 86
77.000000 -16.000000 38.995358 90 90 90
78.000000 -16.000000 40.413368 92 92 92
79.000000 -16.000000 39.349861 92 92 92
80.000000 -16.000000 40.767872 93 93 93
81.000000 -16.000000 41.122375 94 94 94
91.000000 -16.000000 125.494148 104 104 104
99.000000 -16.000000 126.203156 113 113 113
100.000000 -16.000000 126.203156 114 114 114
104.000000 -16.000000 125.139648 115 115 115
106.000000 -16.000000 124.430641 117 117 117
107.000000 -16.000000 124.430641 119 119 119
108.000000 -16.000000 124.430641 121 121 121
109.000000 -16.000000 123.721634 121 121 121
110.000000 -16.000000 126.203156 121 121 121
137.000000 -16.000000 85.789787 120 120 120
138.000000 -16.000000 87.916801 119 119 119
139.000000 -16.000000 93.234352 118 118 118
140.000000 -16.000000 98.197395 116 116 116
141.000000 -16.000000 103.514946 113 113 113
142.000000 -16.000000 109.186996 111 111 111
143.000000 -16.000000 115.213554 108 108 108
146.000000 -16.000000 132.229706 105 105 105
147.000000 -16.000000 137.192749 103 103 103
148.000000 -16.000000 138.965271 74 74 74
149.000000 -16.000000 138.965271 44 44 44
150.000000 -16.000000 140.383286 42 42 42
151.000000 -16.000000 142.510300 39 39 39
152.000000 -16.000000 142.155807 36 36 36
153.000000 -16.000000 143.219315 33 33 33
154.000000 -16.000000 143.219315 34 34 34
68.000000 -17.000000 111.668526 102 102 102
69.000000 -17.000000 112.377525 103 103 103
70.000000 -17.000000 112.732033 105 105 105
73.000000 -17.000000 41.476879 109 109 109
74.000000 -17.000000 42.185886 110 110 110
78.000000 -17.000000 41.476879 118 118 118
79.000000 -17.000000 40.058868 120 120 120
99.000000 -17.000000 124.430641 157 157 157
100.000000 -17.000000 125.494148 158 158 158
104.000000 -17.000000 124.430641 165 165 165
106.000000 -17.000000 124.430641 169 169 169
107.000000 -17.000000 124.430641 171 171 171
108.000000 -17.000000 124.076134 173 173 173
109.000000 -17.000000 123.367126 175 175 175
110.000000 -17.000000 125.139648 175 175 175
137.000000 -17.000000 85.789787 194 194 194
138.000000 -17.000000 87.916801 191 191 191
139.000000 -17.000000 93.234352 190 190 190
140.000000 -17.000000 98.197395 186 186 186
141.000000 -17.000000 103.514946 182 182 182
142.000000 -17.000000 109.186996 178 178 178
143.000000 -17.000000 114.859055 173 173 173
146.000000 -17.000000 132.229706 162 162 162
147.000000 -17.000000 137.547256 154 154 154
148.000000 -17.000000 138.965271 102 102 102
149.000000 -17.000000 138.965271 48 48 48
150.000000 -17.000000 140.383286 43 43 43
151.000000 -17.000000 142.864807 40 40 40
152.000000 -17.000000 142.510300 37 37 37
153.000000 -17.000000 143.573807 33 33 33
154.000000 -17.000000 143.573807 34 34 34
69.000000 -18.000000 113.086533 167 167 167
70.000000 -18.000000 113.441040 168 168 168
73.000000 -18.000000 40.767872 173 173 173
74.000000 -18.000000 41.831383 175 175 175
78.000000 -18.000000 41.831383 182 182 182
95.000000 -18.000000 120.531105 209 209 209
99.000000 -18.000000 122.303619 213 213 213
100.000000 -18.000000 123.721634 214 214 214
106.000000 -18.000000 124.076134 220 220 220
107.000000 -18.000000 124.076134 221 221 221
108.000000 -18.000000 124.076134 222 222 222
109.000000 -18.000000 123.367126 223 223 223
120.000000 -18.000000 62.038067 224 224 224
122.000000 -18.000000 64.874092 224 224 224
124.000000 -18.000000 64.874092 224 224 224
137.000000 -18.000000 85.080780 212 212 212
138.000000 -18.000000 87.916801 208 208 208
139.000000 -18.000000 92.879852 205 205 205
140.000000 -18.000000 97.842896 201 201 201
141.000000 -18.000000 103.160446 197 197 197
142.000000 -18.000000 108.832497 191 191 191
143.000000 -18.000000 114.504547 186 186 186
144.000000 -18.000000 120.531105 181 181 181
145.000000 -18.000000 126.203156 176 176 176
146.000000 -18.000000 132.229706 171 171 171
147.000000 -18.000000 137.547256 161 161 161
148.000000 -18.000000 138.610764 106 106 106
149.000000 -18.000000 138.965271 50 50 50
150.000000 -18.000000 140.737793 44 44 44
151.000000 -18.000000 143.219315 41 41 41
152.000000 -18.000000 143.219315 37 37 37
153.000000 -18.000000 143.928314 33 33 33
154.000000 -18.000000 143.928314 34 34 34
69.000000 -19.000000 113.086533 184 184 184
73.000000 -19.000000 39.349861 189 189 189
74.000000 -19.000000 41.122375 190 190 190
75.000000 -19.000000 41.122375 191 191 191
77.000000 -19.000000 41.476879 193 193 193
78.000000 -19.000000 41.831383 194 194 194
79.000000 -19.000000 40.058868 195 195 195
84.000000 -19.000000 126.557655 199 199 199
85.000000 -19.000000 126.912163 202 202 202
86.000000 -19.000000 123.721634 203 203 203
87.000000 -19.000000 124.076134 205 205 205
88.000000 -19.000000 124.430641 206 206 206
89.000000 -19.000000 123.367126 207 207 207
90.000000 -19.000000 124.076134 209 209 209
92.000000 -19.000000 125.139648 211 211 211
93.000000 -19.000000 123.012627 212 212 212
94.000000 -19.000000 121.949120 213 213 213
95.000000 -19.000000 120.885605 214 214 214
96.000000 -19.000000 120.885605 215 215 215
99.000000 -19.000000 121.594612 217 217 217
100.000000 -19.000000 123.012627 218 218 218
124.000000 -19.000000 64.874092 224 224 224
125.000000 -19.000000 65.937607 223 223 223
137.000000 -19.000000 84.017265 211 211 211
138.000000 -19.000000 87.916801 208 208 208
139.000000 -19.000000 92.879852 204 204 204
140.000000 -19.000000 97.842896 199 199 199
141.000000 -19.000000 103.160446 195 195 195
142.000000 -19.000000 108.832497 190 190 190
143.000000 -19.000000 114.504547 185 185 185
144.000000 -19.000000 120.176598 180 180 180
145.000000 -19.000000 126.203156 176 176 176
146.000000 -19.000000 131.875214 171 171 171
147.000000 -19.000000 137.192749 160 160 160
148.000000 -19.000000 138.610764 104 104 104
149.000000 -19.000000 138.965271 50 50 50
150.000000 -19.000000 141.092285 44 44 44
151.000000 -19.000000 143.573807 41 41 41
152.000000 -19.000000 143.573807 37 37 37
153.000000 -19.000000 144.282822 32 32 32
154.000000 -19.000000 143.928314 33 33 33
69.000000 -20.000000 114.504547 184 184 184
73.000000 -20.000000 37.931847 189 189 189
74.000000 -20.000000 38.995358 190 190 190
75.000000 -20.000000 40.413368 191 191 191
76.000000 -20.000000 40.413368 192 192 192
77.000000 -20.000000 40.767872 192 192 192
78.000000 -20.000000 41.476879 194 194 194
79.000000 -20.000000 40.058868 194 194 194
83.000000 -20.000000 125.848648 199 199 199
84.000000 -20.000000 126.557655 200 200 200
85.000000 -20.000000 126.557655 202 202 202
86.000000 -20.000000 123.721634 203 203 203
87.000000 -20.000000 124.076134 205 205 205
88.000000 -20.000000 124.785141 206 206 206
89.000000 -20.000000 124.076134 208 208 208
90.000000 -20.000000 124.076134 209 209 209
91.000000 -20.000000 125.494148 210 210 210
92.000000 -20.000000 125.848648 210 210 210
93.000000 -20.000000 123.367126 212 212 212
94.000000 -20.000000 122.303619 213 213 213
95.000000 -20.000000 120.531105 213 213 213
96.000000 -20.000000 120.885605 214 214 214
99.000000 -20.000000 121.240112 216 216 216
100.000000 -20.000000 122.303619 217 217 217
124.000000 -20.000000 64.519592 223 223 223
137.000000 -20.000000 82.953758 209 209 209
138.000000 -20.000000 87.562302 205 205 205
139.000000 -20.000000 92.879852 202 202 202
140.000000 -20.000000 97.842896 198 198 198
141.000000 -20.000000 103.160446 193 193 193
142.000000 -20.000000 108.832497 189 189 189
143.000000 -20.000000 114.504547 184 184 184
144.000000 -20.000000 120.176598 179 179 179
145.000000 -20.000000 126.203156 175 175 175
146.000000 -20.000000 131.875214 170 170 170
147.000000 -20.000000 137.192749 159 159 159
148.000000 -20.000000 138.256271 102 102 102
149.000000 -20.000000 138.965271 50 50 50
150.000000 -20.000000 141.092285 44 44 44
151.000000 -20.000000 143.573807 41 41 41
152.000000 -20.000000 143.928314 37 37 37
153.000000 -20.000000 144.282822 31 31 31
154.000000 -20.000000 144.282822 32 32 32
70.000000 -21.000000 357.339264 185 185 185
80.000000 -21.000000 124.076134 196 196 196
81.000000 -21.000000 124.076134 196 196 196
82.000000 -21.000000 124.785141 197 197 197
83.000000 -21.000000 125.139648 198 198 198
84.000000 -21.000000 125.848648 200 200 200
85.000000 -21.000000 125.848648 201 201 201
86.000000 -21.000000 124.785141 202 202 202
87.000000 -21.000000 124.785141 204 204 204
88.000000 -21.000000 125.848648 206 206 206
89.000000 -21.000000 125.848648 207 207 207
90.000000 -21.000000 124.430641 207 207 207
91.000000 -21.000000 127.266663 208 208 208
92.000000 -21.000000 127.621170 210 210 210
138.000000 -21.000000 87.562302 203 203 203
139.000000 -21.000000 92.879852 200 200 200
140.000000 -21.000000 97.842896 197 197 197
141.000000 -21.000000 103.160446 192 192 192
142.000000 -21.000000 108.832497 188 188 188
143.000000 -21.000000 114.504547 184 184 184
144.000000 -21.000000 120.531105 179 179 179
145.000000 -21.000000 126.203156 174 174 174
146.000000 -21.000000 131.875214 169 169 169
147.000000 -21.000000 137.192749 158 158 158
148.000000 -21.000000 138.256271 99 99 99
149.000000 -21.000000 138.965271 50 50 50
150.000000 -21.000000 140.737793 44 44 44
151.000000 -21.000000 143.573807 40 40 40
152.000000 -21.000000 143.928314 35 35 35
153.000000 -21.000000 144.637329 31 31 31
154.000000 -21.000000 144.282822 33 33 33
70.000000 -22.000000 357.339264 184 184 184
71.000000 -22.000000 357.339264 186 186 186
77.000000 -22.000000 124.076134 192 192 192
78.000000 -22.000000 123.367126 193 193 193
79.000000 -22.000000 126.557655 194 194 194
80.000000 -22.000000 124.430641 195 195 195
81.000000 -22.000000 124.430641 196 196 196
82.000000 -22.000000 124.785141 197 197 197
83.000000 -22.000000 125.139648 198 198 198
84.000000 -22.000000 125.848648 199 199 199
85.000000 -22.000000 125.848648 200 200 200
86.000000 -22.000000 125.139648 201 201 201
87.000000 -22.000000 125.494148 203 203 203
88.000000 -22.000000 126.203156 205 205 205
89.000000 -22.000000 126.203156 206 206 206
90.000000 -22.000000 124.430641 206 206 206
91.000000 -22.000000 127.975670 207 207 207
92.000000 -22.000000 127.975670 208 208 208
93.000000 -22.000000 128.330170 211 211 211
126.000000 -22.000000 130.457199 219 219 219
135.000000 -22.000000 77.281708 211 211 211
136.000000 -22.000000 77.636208 208 208 208
137.000000 -22.000000 82.244751 205 205 205
138.000000 -22.000000 87.562302 201 201 201
139.000000 -22.000000 92.525345 198 198 198
140.000000 -22.000000 97.842896 194 194 194
141.000000 -22.000000 103.514946 189 189 189
142.000000 -22.000000 108.832497 185 185 185
143.000000 -22.000000 114.504547 182 182 182
144.000000 -22.000000 120.531105 178 178 178
145.000000 -22.000000 126.203156 173 173 173
146.000000 -22.000000 131.875214 168 168 168
147.000000 -22.000000 137.192749 156 156 156
148.000000 -22.000000 137.901764 97 97 97
149.000000 -22.000000 138.610764 48 48 48
150.000000 -22.000000 140.737793 43 43 43
151.000000 -22.000000 143.573807 39 39 39
152.000000 -22.000000 143.928314 34 34 34
153.000000 -22.000000 144.637329 31 31 31
154.000000 -22.000000 143.928314 34 34 34
70.000000 -23.000000 357.339264 183 183 183
76.000000 -23.000000 125.848648 190 190 190
77.000000 -23.000000 124.430641 192 192 192
78.000000 -23.000000 124.076134 192 192 192
79.000000 -23.000000 126.203156 193 193 193
80.000000 -23.000000 124.076134 195 195 195
81.000000 -23.000000 124.076134 195 195 195
82.000000 -23.000000 124.076134 196 196 196
83.000000 -23.000000 124.430641 197 197 197
84.000000 -23.000000 125.139648 198 198 198
85.000000 -23.000000 125.139648 199 199 199
86.000000 -23.000000 124.430641 200 200 200
87.000000 -23.000000 125.139648 202 202 202
88.000000 -23.000000 125.494148 204 204 204
89.000000 -23.000000 125.494148 205 205 205
90.000000 -23.000000 123.721634 206 206 206
91.000000 -23.000000 127.975670 206 206 206
92.000000 -23.000000 127.975670 207 207 207
93.000000 -23.000000 127.975670 209 209 209
94.000000 -23.000000 127.266663 210 210 210
122.000000 -23.000000 129.039185 218 218 218
123.000000 -23.000000 129.393677 218 218 218
124.000000 -23.000000 129.393677 217 217 217
125.000000 -23.000000 129.748184 217 217 217
126.000000 -23.000000 130.102692 216 216 216
127.000000 -23.000000 130.102692 216 216 216
136.000000 -23.000000 76.927200 206 206 206
137.000000 -23.000000 82.244751 203 203 203
138.000000 -23.000000 87.562302 200 200 200
139.000000 -23.000000 92.525345 196 196 196
140.000000 -23.000000 97.842896 192 192 192
141.000000 -23.000000 103.514946 187 187 187
142.000000 -23.000000 109.186996 184 184 184
143.000000 -23.000000 114.859055 180 180 180
144.000000 -23.000000 120.531105 176 176 176
145.000000 -23.000000 126.203156 172 172 172
146.000000 -23.000000 131.875214 167 167 167
147.000000 -23.000000 137.192749 156 156 156
148.000000 -23.000000 137.901764 96 96 96
149.000000 -23.000000 138.610764 48 48 48
150.000000 -23.000000 140.737793 43 43 43
151.000000 -23.000000 143.573807 39 39 39
152.000000 -23.000000 143.928314 34 34 34
153.000000 -23.000000 144.637329 30 30 30
154.000000 -23.000000 143.928314 33 33 33
71.000000 -24.000000 123.012627 185 185 185
72.000000 -24.000000 123.012627 186 186 186
74.000000 -24.000000 123.367126 188 188 188
75.000000 -24.000000 126.912163 189 189 189
76.000000 -24.000000 125.139648 190 190 190
77.000000 -24.000000 124.430641 191 191 191
78.000000 -24.000000 124.785141 192 192 192
79.000000 -24.000000 126.557655 193 193 193
80.000000 -24.000000 124.785141 193 193 193
81.000000 -24.000000 124.430641 194 194 194
82.000000 -24.000000 124.785141 195 195 195
83.000000 -24.000000 124.785141 196 196 196
84.000000 -24.000000 125.494148 196 196 196
85.000000 -24.000000 125.139648 197 197 197
86.000000 -24.000000 124.785141 198 198 198
87.000000 -24.000000 125.494148 200 200 200
88.000000 -24.000000 125.848648 201 201 201
89.000000 -24.000000 125.848648 203 203 203
90.000000 -24.000000 123.367126 204 204 204
91.000000 -24.000000 127.266663 205 205 205
92.000000 -24.000000 127.266663 206 206 206
93.000000 -24.000000 127.621170 207 207 207
94.000000 -24.000000 126.912163 209 209 209
102.000000 -24.000000 126.203156 213 213 213
117.000000 -24.000000 129.393677 219 219 219
119.000000 -24.000000 129.039185 218 218 218
120.000000 -24.000000 129.039185 218 218 218
121.000000 -24.000000 129.393677 216 216 216
122.000000 -24.000000 129.393677 217 217 217
123.000000 -24.000000 129.748184 216 216 216
124.000000 -24.000000 129.748184 215 215 215
125.000000 -24.000000 129.748184 215 215 215
126.000000 -24.000000 130.102692 214 214 214
127.000000 -24.000000 130.102692 213 213 213
128.000000 -24.000000 129.393677 214 214 214
137.000000 -24.000000 82.244751 201 201 201
138.000000 -24.000000 87.207802 198 198 198
139.000000 -24.000000 92.525345 195 195 195
140.000000 -24.000000 98.197395 191 191 191
141.000000 -24.000000 103.514946 186 186 186
142.000000 -24.000000 109.186996 182 182 182
143.000000 -24.000000 114.859055 178 178 178
144.000000 -24.000000 120.531105 175 175 175
145.000000 -24.000000 126.557655 171 171 171
146.000000 -24.000000 132.229706 167 167 167
147.000000 -24.000000 137.547256 155 155 155
148.000000 -24.000000 137.547256 94 94 94
149.000000 -24.000000 138.610764 49 49 49
150.000000 -24.000000 140.383286 44 44 44
151.000000 -24.000000 143.219315 39 39 39
152.000000 -24.000000 143.928314 35 35 35
153.000000 -24.000000 144.637329 31 31 31
154.000000 -24.000000 143.928314 35 35 35
69.000000 -25.000000 121.949120 182 182 182
70.000000 -25.000000 122.658119 183 183 183
71.000000 -25.000000 123.012627 184 184 184
72.000000 -25.000000 123.367126 185 185 185
74.000000 -25.000000 123.721634 187 187 187
75.000000 -25.000000 126.912163 189 189 189
76.000000 -25.000000 124.785141 189 189 189
77.000000 -25.000000 124.076134 190 190 190
78.000000 -25.000000 124.430641 190 190 190
79.000000 -25.000000 126.557655 191 191 191
80.000000 -25.000000 124.430641 192 192 192
81.000000 -25.000000 124.430641 192 192 192
82.000000 -25.000000 124.785141 193 193 193
83.000000 -25.000000 124.785141 192 192 192
84.000000 -25.000000 125.494148 187 187 187
85.000000 -25.000000 125.139648 187 187 187
86.000000 -25.000000 124.430641 193 193 193
87.000000 -25.000000 125.139648 198 198 198
88.000000 -25.000000 125.494148 200 200 200
89.000000 -25.000000 125.494148 201 201 201
90.000000 -25.000000 123.367126 203 203 203
91.000000 -25.000000 127.266663 204 204 204
92.000000 -25.000000 127.266663 205 205 205
93.000000 -25.000000 127.266663 206 206 206
94.000000 -25.000000 126.912163 208 208 208
102.000000 -25.000000 126.557655 212 212 212
115.000000 -25.000000 127.621170 217 217 217
116.000000 -25.000000 127.975670 217 217 217
117.000000 -25.000000 129.393677 217 217 217
118.000000 -25.000000 129.748184 216 216 216
119.000000 -25.000000 129.748184 216 216 216
120.000000 -25.000000 129.393677 217 217 217
121.000000 -25.000000 129.748184 216 216 216
122.000000 -25.000000 129.393677 214 214 214
123.000000 -25.000000 129.748184 212 212 212
124.000000 -25.000000 130.102692 208 208 208
125.000000 -25.000000 129.748184 208 208 208
126.000000 -25.000000 130.102692 210 210 210
127.000000 -25.000000 130.457199 212 212 212
128.000000 -25.000000 129.748184 213 213 213
129.000000 -25.000000 129.748184 212 212 212
133.000000 -25.000000 76.572701 209 209 209
134.000000 -25.000000 76.218201 207 207 207
135.000000 -25.000000 76.572701 205 205 205
136.000000 -25.000000 76.572701 202 202 202
137.000000 -25.000000 81.890251 200 200 200
138.000000 -25.000000 87.207802 196 196 196
139.000000 -25.000000 92.525345 193 193 193
140.000000 -25.000000 98.197395 189 189 189
141.000000 -25.000000 103.869453 185 185 185
142.000000 -25.000000 109.541504 181 181 181
143.000000 -25.000000 115.213554 177 177 177
144.000000 -25.000000 120.885605 173 173 173
145.000000 -25.000000 126.557655 171 171 171
146.000000 -25.000000 132.229706 167 167 167
147.000000 -25.000000 137.547256 154 154 154
148.000000 -25.000000 137.192749 93 93 93
149.000000 -25.000000 138.256271 49 49 49
150.000000 -25.000000 140.383286 43 43 43
152.000000 -25.000000 143.928314 35 35 35
153.000000 -25.000000 144.637329 32 32 32
154.000000 -25.000000 143.928314 36 36 36
68.000000 -26.000000 116.986069 179 179 179
69.000000 -26.000000 121.240112 181 181 181
70.000000 -26.000000 122.658119 181 181 181
71.000000 -26.000000 123.012627 183 183 183
72.000000 -26.000000 123.012627 185 185 185
73.000000 -26.000000 122.303619 186 186 186
74.000000 -26.000000 123.367126 187 187 187
75.000000 -26.000000 126.557655 188 188 188
76.000000 -26.000000 124.785141 188 188 188
77.000000 -26.000000 124.076134 188 188 188
78.000000 -26.000000 124.430641 189 189 189
79.000000 -26.000000 126.557655 190 190 190
80.000000 -26.000000 124.430641 192 192 192
81.000000 -26.000000 124.430641 192 192 192
82.000000 -26.000000 124.785141 189 189 189
83.000000 -26.000000 124.785141 165 165 165
84.000000 -26.000000 125.494148 133 133 133
85.000000 -26.000000 124.785141 133 133 133
86.000000 -26.000000 124.430641 159 159 159
87.000000 -26.000000 125.139648 188 188 188
88.000000 -26.000000 125.494148 198 198 198
89.000000 -26.000000 125.494148 200 200 200
90.000000 -26.000000 123.367126 202 202 202
91.000000 -26.000000 127.266663 202 202 202
92.000000 -26.000000 127.266663 203 203 203
93.000000 -26.000000 127.266663 205 205 205
94.000000 -26.000000 126.912163 206 206 206
95.000000 -26.000000 123.367126 207 207 207
97.000000 -26.000000 124.785141 208 208 208
101.000000 -26.000000 125.494148 210 210 210
102.000000 -26.000000 126.557655 211 211 211
114.000000 -26.000000 130.811691 216 216 216
115.000000 -26.000000 127.975670 216 216 216
116.000000 -26.000000 127.975670 216 216 216
117.000000 -26.000000 129.393677 215 215 215
118.000000 -26.000000 129.748184 215 215 215
119.000000 -26.000000 129.748184 215 215 215
120.000000 -26.000000 129.393677 216 216 216
121.000000 -26.000000 129.393677 215 215 215
122.000000 -26.000000 129.393677 208 208 208
123.000000 -26.000000 129.748184 196 196 196
124.000000 -26.000000 129.748184 193 193 193
125.000000 -26.000000 129.393677 195 195 195
126.000000 -26.000000 129.748184 196 196 196
127.000000 -26.000000 130.102692 206 206 206
128.000000 -26.000000 129.748184 211 211 211
129.000000 -26.000000 129.393677 210 210 210
132.000000 -26.000000 75.509193 208 208 208
133.000000 -26.000000 75.863693 207 207 207
134.000000 -26.000000 75.863693 205 205 205
135.000000 -26.000000 75.863693 203 203 203
136.000000 -26.000000 76.572701 200 200 200
137.000000 -26.000000 81.890251 198 198 198
138.000000 -26.000000 87.207802 195 195 195
139.000000 -26.000000 92.525345 191 191 191
140.000000 -26.000000 98.551903 188 188 188
141.000000 -26.000000 104.223953 183 183 183
142.000000 -26.000000 109.541504 179 179 179
143.000000 -26.000000 115.213554 176 176 176
144.000000 -26.000000 120.885605 172 172 172
145.000000 -26.000000 126.912163 169 169 169
146.000000 -26.000000 132.584213 166 166 166
147.000000 -26.000000 137.547256 152 152 152
148.000000 -26.000000 136.838257 90 90 90
149.000000 -26.000000 138.256271 49 49 49
150.000000 -26.000000 140.028778 44 44 44
152.000000 -26.000000 143.928314 34 34 34
153.000000 -26.000000 144.637329 32 32 32
154.000000 -26.000000 143.928314 36 36 36
68.000000 -27.000000 117.340576 179 179 179
69.000000 -27.000000 120.885605 180 180 180
70.000000 -27.000000 122.658119 181 181 181
71.000000 -27.000000 122.658119 182 182 182
72.000000 -27.000000 123.012627 183 183 183
73.000000 -27.000000 122.303619 185 185 185
74.000000 -27.000000 123.367126 186 186 186
75.000000 -27.000000 126.912163 186 186 186
76.000000 -27.000000 125.139648 187 187 187
77.000000 -27.000000 124.430641 188 188 188
78.000000 -27.000000 124.785141 188 188 188
79.000000 -27.000000 126.912163 190 190 190
80.000000 -27.000000 124.785141 191 191 191
81.000000 -27.000000 124.785141 191 191 191
82.000000 -27.000000 124.785141 172 172 172
83.000000 -27.000000 125.139648 107 107 107
84.000000 -27.000000 125.494148 76 76 76
85.000000 -27.000000 124.785141 96 96 96
86.000000 -27.000000 124.430641 124 124 124
87.000000 -27.000000 125.139648 158 158 158
88.000000 -27.000000 125.494148 194 194 194
89.000000 -27.000000 125.494148 199 199 199
90.000000 -27.000000 123.012627 201 201 201
91.000000 -27.000000 126.912163 201 201 201
92.000000 -27.000000 127.266663 202 202 202
93.000000 -27.000000 126.912163 203 203 203
94.000000 -27.000000 126.203156 204 204 204
95.000000 -27.000000 122.658119 206 206 206
97.000000 -27.000000 123.367126 207 207 207
101.000000 -27.000000 124.430641 208 208 208
102.000000 -27.000000 126.203156 209 209 209
114.000000 -27.000000 130.811691 214 214 214
115.000000 -27.000000 128.330170 214 214 214
116.000000 -27.000000 128.330170 214 214 214
117.000000 -27.000000 129.393677 215 215 215
119.000000 -27.000000 130.102692 215 215 215
120.000000 -27.000000 129.393677 215 215 215
121.000000 -27.000000 129.393677 212 212 212
122.000000 -27.000000 129.393677 191 191 191
123.000000 -27.000000 129.748184 178 178 178
124.000000 -27.000000 129.748184 198 198 198
125.000000 -27.000000 129.393677 205 205 205
126.000000 -27.000000 129.748184 183 183 183
127.000000 -27.000000 130.102692 191 191 191
128.000000 -27.000000 129.748184 207 207 207
129.000000 -27.000000 129.393677 208 208 208
130.000000 -27.000000 128.684677 207 207 207
132.000000 -27.000000 73.382172 205 205 205
133.000000 -27.000000 74.445679 204 204 204
134.000000 -27.000000 74.800186 203 203 203
135.000000 -27.000000 74.445679 201 201 201
136.000000 -27.000000 76.572701 198 198 198
137.000000 -27.000000 81.535744 195 195 195
138.000000 -27.000000 86.853294 193 193 193
139.000000 -27.000000 92.525345 189 189 189
140.000000 -27.000000 98.551903 186 186 186
141.000000 -27.000000 104.223953 182 182 182
142.000000 -27.000000 109.896004 178 178 178
143.000000 -27.000000 115.568054 175 175 175
144.000000 -27.000000 121.240112 172 172 172
145.000000 -27.000000 126.912163 169 169 169
146.000000 -27.000000 132.584213 165 165 165
147.000000 -27.000000 137.547256 150 150 150
148.000000 -27.000000 136.483749 87 87 87
149.000000 -27.000000 137.901764 48 48 48
150.000000 -27.000000 139.674271 44 44 44
152.000000 -27.000000 143.573807 33 33 33
153.000000 -27.000000 144.637329 31 31 31
154.000000 -27.000000 143.928314 36 36 36
68.000000 -28.000000 117.340576 178 178 178
69.000000 -28.000000 120.885605 179 179 179
70.000000 -28.000000 122.303619 180 180 180
71.000000 -28.000000 122.658119 181 181 181
72.000000 -28.000000 122.658119 182 182 182
73.000000 -28.000000 122.303619 183 183 183
74.000000 -28.000000 123.367126 185 185 185
75.000000 -28.000000 126.912163 186 186 186
76.000000 -28.000000 125.848648 187 187 187
77.000000 -28.000000 125.139648 187 187 187
78.000000 -28.000000 125.494148 187 187 187
79.000000 -28.000000 127.266663 189 189 189
80.000000 -28.000000 125.139648 189 189 189
81.000000 -28.000000 125.139648 188 188 188
82.000000 -28.000000 125.139648 148 148 148
83.000000 -28.000000 125.139648 73 73 73
84.000000 -28.000000 125.494148 61 61 61
85.000000 -28.000000 125.139648 79 79 79
86.000000 -28.000000 124.785141 97 97 97
87.000000 -28.000000 125.139648 124 124 124
88.000000 -28.000000 125.494148 185 185 185
89.000000 -28.000000 125.139648 198 198 198
90.000000 -28.000000 123.012627 199 199 199
93.000000 -28.000000 126.557655 202 202 202
94.000000 -28.000000 125.494148 203 203 203
95.000000 -28.000000 121.949120 205 205 205
97.000000 -28.000000 122.658119 205 205 205
102.000000 -28.000000 125.494148 207 207 207
114.000000 -28.000000 131.166199 213 213 213
115.000000 -28.000000 128.684677 213 213 213
116.000000 -28.000000 128.330170 214 214 214
117.000000 -28.000000 129.393677 214 214 214
119.000000 -28.000000 130.457199 214 214 214
120.000000 -28.000000 129.748184 214 214 214
121.000000 -28.000000 129.748184 206 206 206
122.000000 -28.000000 129.393677 174 174 174
123.000000 -28.000000 129.748184 167 167 167
124.000000 -28.000000 129.748184 179 179 179
125.000000 -28.000000 129.393677 182 182 182
126.000000 -28.000000 129.748184 170 170 170
127.000000 -28.000000 129.748184 177 177 177
128.000000 -28.000000 129.748184 202 202 202
129.000000 -28.000000 129.393677 206 206 206
130.000000 -28.000000 128.330170 205 205 205
132.000000 -28.000000 72.318665 203 203 203
133.000000 -28.000000 73.382172 202 202 202
134.000000 -28.000000 74.091179 201 201 201
135.000000 -28.000000 73.027672 199 199 199
136.000000 -28.000000 76.218201 196 196 196
137.000000 -28.000000 81.181244 193 193 193
138.000000 -28.000000 86.498795 190 190 190
139.000000 -28.000000 92.525345 186 186 186
140.000000 -28.000000 98.197395 183 183 183
141.000000 -28.000000 104.578461 180 180 180
142.000000 -28.000000 109.896004 178 178 178
143.000000 -28.000000 115.568054 174 174 174
144.000000 -28.000000 121.240112 171 171 171
145.000000 -28.000000 126.912163 168 168 168
146.000000 -28.000000 132.584213 165 165 165
147.000000 -28.000000 137.192749 149 149 149
148.000000 -28.000000 136.129242 85 85 85
149.000000 -28.000000 137.901764 48 48 48
150.000000 -28.000000 139.674271 43 43 43
151.000000 -28.000000 86.144287 39 39 39
152.000000 -28.000000 143.573807 33 33 33
153.000000 -28.000000 144.637329 32 32 32
154.000000 -28.000000 143.928314 36 36 36
68.000000 -29.000000 117.695076 177 177 177
69.000000 -29.000000 121.240112 178 178 178
70.000000 -29.000000 122.303619 179 179 179
72.000000 -29.000000 122.658119 181 181 181
73.000000 -29.000000 122.303619 183 183 183
74.000000 -29.000000 123.721634 184 184 184
75.000000 -29.000000 127.266663 185 185 185
76.000000 -29.000000 125.848648 185 185 185
77.000000 -29.000000 125.848648 186 186 186
78.000000 -29.000000 126.203156 186 186 186
79.000000 -29.000000 127.266663 187 187 187
80.000000 -29.000000 125.139648 187 187 187
81.000000 -29.000000 125.494148 185 185 185
82.000000 -29.000000 125.139648 144 144 144
83.000000 -29.000000 125.494148 68 68 68
84.000000 -29.000000 125.848648 54 54 54
85.000000 -29.000000 125.139648 62 62 62
86.000000 -29.000000 124.785141 72 72 72
87.000000 -29.000000 125.139648 108 108 108
88.000000 -29.000000 125.139648 179 179 179
89.000000 -29.000000 124.785141 197 197 197
90.000000 -29.000000 122.658119 198 198 198
93.000000 -29.000000 125.494148 202 202 202
94.000000 -29.000000 124.785141 202 202 202
95.000000 -29.000000 120.885605 203 203 203
97.000000 -29.000000 123.012627 204 204 204
101.000000 -29.000000 123.012627 206 206 206
102.000000 -29.000000 124.076134 206 206 206
114.000000 -29.000000 130.811691 212 212 212
115.000000 -29.000000 129.039185 212 212 212
116.000000 -29.000000 128.684677 212 212 212
117.000000 -29.000000 129.748184 213 213 213
119.000000 -29.000000 130.811691 213 213 213
120.000000 -29.000000 129.748184 212 212 212
121.000000 -29.000000 129.748184 198 198 198
122.000000 -29.000000 129.393677 161 161 161
123.000000 -29.000000 129.748184 155 155 155
124.000000 -29.000000 129.748184 162 162 162
125.000000 -29.000000 129.393677 163 163 163
126.000000 -29.000000 129.393677 157 157 157
127.000000 -29.000000 129.748184 166 166 166
128.000000 -29.000000 129.393677 198 198 198
129.000000 -29.000000 129.393677 205 205 205
130.000000 -29.000000 128.330170 204 204 204
132.000000 -29.000000 71.964157 202 202 202
133.000000 -29.000000 72.673164 201 201 201
134.000000 -29.000000 73.027672 199 199 199
135.000000 -29.000000 72.318665 198 198 198
136.000000 -29.000000 76.218201 195 195 195
137.000000 -29.000000 81.181244 192 192 192
138.000000 -29.000000 86.498795 188 188 188
139.000000 -29.000000 92.170845 184 184 184
140.000000 -29.000000 98.197395 182 182 182
141.000000 -29.000000 104.578461 179 179 179
142.000000 -29.000000 110.250511 177 177 177
143.000000 -29.000000 115.568054 173 173 173
144.000000 -29.000000 121.240112 170 170 170
145.000000 -29.000000 127.266663 168 168 168
146.000000 -29.000000 132.584213 165 165 165
147.000000 -29.000000 137.192749 149 149 149
148.000000 -29.000000 135.774750 85 85 85
149.000000 -29.000000 137.547256 48 48 48
150.000000 -29.000000 139.319778 44 44 44
151.000000 -29.000000 86.498795 39 39 39
152.000000 -29.000000 143.219315 34 34 34
153.000000 -29.000000 144.637329 32 32 32
154.000000 -29.000000 143.928314 37 37 37
68.000000 -30.000000 118.404083 176 176 176
69.000000 -30.000000 121.594612 178 178 178
70.000000 -30.000000 122.658119 179 179 179
71.000000 -30.000000 123.012627 180 180 180
72.000000 -30.000000 123.012627 180 180 180
73.000000 -30.000000 122.303619 182 182 182
74.000000 -30.000000 123.721634 183 183 183
75.000000 -30.000000 127.266663 184 184 184
76.000000 -30.000000 125.848648 184 184 184
77.000000 -30.000000 125.848648 185 185 185
78.000000 -30.000000 126.557655 185 185 185
79.000000 -30.000000 127.266663 185 185 185
80.000000 -30.000000 125.494148 185 185 185
81.000000 -30.000000 125.494148 183 183 183
82.000000 -30.000000 125.494148 153 153 153
83.000000 -30.000000 125.494148 82 82 82
84.000000 -30.000000 125.848648 54 54 54
85.000000 -30.000000 125.139648 55 55 55
86.000000 -30.000000 124.785141 66 66 66
87.000000 -30.000000 125.139648 116 116 116
88.000000 -30.000000 125.139648 180 180 180
89.000000 -30.000000 124.785141 194 194 194
90.000000 -30.000000 122.658119 195 195 195
93.000000 -30.000000 124.785141 200 200 200
94.000000 -30.000000 124.076134 201 201 201
95.000000 -30.000000 120.176598 201 201 201
96.000000 -30.000000 121.240112 203 203 203
97.000000 -30.000000 122.658119 202 202 202
101.000000 -30.000000 122.303619 205 205 205
102.000000 -30.000000 122.658119 205 205 205
105.000000 -30.000000 121.240112 208 208 208
107.000000 -30.000000 124.430641 208 208 208
114.000000 -30.000000 130.457199 211 211 211
115.000000 -30.000000 129.039185 212 212 212
116.000000 -30.000000 128.684677 212 212 212
117.000000 -30.000000 129.748184 211 211 211
119.000000 -30.000000 130.811691 211 211 211
120.000000 -30.000000 129.748184 210 210 210
121.000000 -30.000000 129.748184 194 194 194
122.000000 -30.000000 129.393677 149 149 149
123.000000 -30.000000 129.748184 138 138 138
124.000000 -30.000000 129.748184 147 147 147
125.000000 -30.000000 129.393677 146 146 146
126.000000 -30.000000 129.393677 138 138 138
127.000000 -30.000000 129.748184 159 159 159
128.000000 -30.000000 129.393677 197 197 197
129.000000 -30.000000 129.393677 203 203 203
130.000000 -30.000000 128.330170 203 203 203
132.000000 -30.000000 71.255150 201 201 201
133.000000 -30.000000 71.964157 200 200 200
134.000000 -30.000000 72.318665 198 198 198
135.000000 -30.000000 71.609657 196 196 196
136.000000 -30.000000 76.218201 192 192 192
137.000000 -30.000000 81.181244 186 186 186
138.000000 -30.000000 86.144287 183 183 183
139.000000 -30.000000 92.170845 183 183 183
142.000000 -30.000000 110.250511 174 174 174
143.000000 -30.000000 115.922562 172 172 172
144.000000 -30.000000 121.594612 169 169 169
145.000000 -30.000000 127.266663 167 167 167
146.000000 -30.000000 132.938721 164 164 164
147.000000 -30.000000 137.192749 147 147 147
148.000000 -30.000000 135.774750 83 83 83
149.000000 -30.000000 137.547256 49 49 49
150.000000 -30.000000 139.319778 45 45 45
151.000000 -30.000000 86.853294 40 40 40
153.000000 -30.000000 144.637329 32 32 32
154.000000 -30.000000 143.928314 37 37 37
68.000000 -31.000000 118.758583 175 175 175
69.000000 -31.000000 121.949120 177 177 177
70.000000 -31.000000 122.658119 178 178 178
71.000000 -31.000000 122.658119 179 179 179
72.000000 -31.000000 123.012627 180 180 180
73.000000 -31.000000 122.303619 181 181 181
74.000000 -31.000000 123.367126 182 182 182
75.000000 -31.000000 126.912163 182 182 182
76.000000 -31.000000 125.848648 183 183 183
77.000000 -31.000000 125.848648 184 184 184
78.000000 -31.000000 126.203156 184 184 184
79.000000 -31.000000 127.266663 184 184 184
80.000000 -31.000000 125.494148 184 184 184
81.000000 -31.000000 125.494148 182 182 182
82.000000 -31.000000 125.494148 168 168 168
83.000000 -31.000000 125.494148 117 117 117
84.000000 -31.000000 125.848648 75 75 75
85.000000 -31.000000 125.139648 71 71 71
86.000000 -31.000000 124.430641 93 93 93
87.000000 -31.000000 124.785141 147 147 147
88.000000 -31.000000 124.785141 186 186 186
89.000000 -31.000000 124.785141 193 193 193
90.000000 -31.000000 122.658119 194 194 194
91.000000 -31.000000 125.848648 196 196 196
92.000000 -31.000000 124.785141 198 198 198
93.000000 -31.000000 124.430641 199 199 199
94.000000 -31.000000 123.721634 200 200 200
95.000000 -31.000000 119.822098 200 200 200
96.000000 -31.000000 120.885605 201 201 201
101.000000 -31.000000 121.949120 203 203 203
114.000000 -31.000000 130.457199 209 209 209
115.000000 -31.000000 129.039185 210 210 210
116.000000 -31.000000 128.684677 210 210 210
117.000000 -31.000000 129.748184 209 209 209
118.000000 -31.000000 130.102692 209 209 209
119.000000 -31.000000 130.811691 208 208 208
120.000000 -31.000000 130.102692 206 206 206
121.000000 -31.000000 129.748184 197 197 197
122.000000 -31.000000 129.748184 156 156 156
123.000000 -31.000000 129.748184 119 119 119
124.000000 -31.000000 129.748184 115 115 115
125.000000 -31.000000 129.393677 117 117 117
126.000000 -31.000000 129.393677 127 127 127
127.000000 -31.000000 129.748184 169 169 169
128.000000 -31.000000 129.393677 199 199 199
129.000000 -31.000000 129.393677 203 203 203
130.000000 -31.000000 128.330170 202 202 202
133.000000 -31.000000 71.255150 198 198 198
134.000000 -31.000000 71.609657 195 195 195
135.000000 -31.000000 70.900650 192 192 192
136.000000 -31.000000 76.218201 189 189 189
137.000000 -31.000000 81.181244 182 182 182
138.000000 -31.000000 86.144287 178 178 178
139.000000 -31.000000 92.170845 179 179 179
142.000000 -31.000000 110.250511 173 173 173
143.000000 -31.000000 115.922562 171 171 171
144.000000 -31.000000 121.949120 168 168 168
145.000000 -31.000000 127.621170 165 165 165
146.000000 -31.000000 132.938721 163 163 163
147.000000 -31.000000 137.547256 146 146 146
148.000000 -31.000000 135.774750 82 82 82
149.000000 -31.000000 137.547256 50 50 50
150.000000 -31.000000 139.319778 46 46 46
151.000000 -31.000000 87.207802 40 40 40
153.000000 -31.000000 144.637329 33 33 33
154.000000 -31.000000 143.928314 38 38 38
68.000000 -32.000000 119.113091 174 174 174
69.000000 -32.000000 121.949120 176 176 176
70.000000 -32.000000 122.658119 177 177 177
71.000000 -32.000000 122.658119 178 178 178
72.000000 -32.000000 123.012627 179 179 179
73.000000 -32.000000 121.949120 180 180 180
74.000000 -32.000000 123.367126 180 180 180
75.000000 -32.000000 126.912163 181 181 181
76.000000 -32.000000 125.848648 183 183 183
77.000000 -32.000000 126.203156 183 183 183
78.000000 -32.000000 126.557655 183 183 183
79.000000 -32.000000 127.266663 183 183 183
80.000000 -32.000000 125.494148 182 182 182
81.000000 -32.000000 125.848648 182 182 182
82.000000 -32.000000 125.494148 179 179 179
83.000000 -32.000000 125.494148 161 161 161
84.000000 -32.000000 125.848648 134 134 134
85.000000 -32.000000 125.139648 127 127 127
86.000000 -32.000000 124.430641 149 149 149
87.000000 -32.000000 124.785141 178 178 178
88.000000 -32.000000 124.785141 190 190 190
89.000000 -32.000000 124.430641 193 193 193
90.000000 -32.000000 122.658119 194 194 194
91.000000 -32.000000 124.076134 196 196 196
92.000000 -32.000000 123.367126 196 196 196
93.000000 -32.000000 123.367126 198 198 198
95.000000 -32.000000 117.695076 200 200 200
96.000000 -32.000000 117.340576 200 200 200
101.000000 -32.000000 120.885605 202 202 202
113.000000 -32.000000 127.975670 207 207 207
114.000000 -32.000000 131.166199 208 208 208
115.000000 -32.000000 129.039185 208 208 208
116.000000 -32.000000 128.684677 209 209 209
117.000000 -32.000000 130.102692 207 207 207
118.000000 -32.000000 130.457199 206 206 206
119.000000 -32.000000 131.166199 205 205 205
120.000000 -32.000000 130.102692 205 205 205
121.000000 -32.000000 129.748184 201 201 201
122.000000 -32.000000 129.748184 185 185 185
123.000000 -32.000000 129.748184 152 152 152
124.000000 -32.000000 129.748184 131 131 131
125.000000 -32.000000 129.393677 136 136 136
126.000000 -32.000000 129.393677 164 164 164
127.000000 -32.000000 129.748184 192 192 192
128.000000 -32.000000 129.393677 202 202 202
129.000000 -32.000000 129.039185 203 203 203
130.000000 -32.000000 127.975670 201 201 201
134.000000 -32.000000 71.609657 194 194 194
136.000000 -32.000000 76.218201 188 188 188
137.000000 -32.000000 81.181244 184 184 184
138.000000 -32.000000 85.789787 181 181 181
139.000000 -32.000000 92.170845 177 177 177
142.000000 -32.000000 110.250511 172 172 172
145.000000 -32.000000 127.621170 165 165 165
146.000000 -32.000000 132.938721 162 162 162
147.000000 -32.000000 137.192749 145 145 145
148.000000 -32.000000 135.774750 81 81 81
149.000000 -32.000000 137.547256 51 51 51
150.000000 -32.000000 138.965271 47 47 47
152.000000 -32.000000 142.864807 35 35 35
153.000000 -32.000000 144.637329 36 36 36
154.000000 -32.000000 143.928314 43 43 43
68.000000 -33.000000 119.467590 173 173 173
69.000000 -33.000000 121.949120 175 175 175
70.000000 -33.000000 122.303619 176 176 176
71.000000 -33.000000 122.658119 177 177 177
72.000000 -33.000000 122.658119 178 178 178
73.000000 -33.000000 121.949120 179 179 179
74.000000 -33.000000 123.367126 180 180 180
75.000000 -33.000000 126.912163 180 180 180
76.000000 -33.000000 126.203156 182 182 182
77.000000 -33.000000 126.557655 182 182 182
78.000000 -33.000000 126.912163 182 182 182
79.000000 -33.000000 127.621170 182 182 182
80.000000 -33.000000 125.848648 182 182 182
81.000000 -33.000000 125.848648 182 182 182
82.000000 -33.000000 125.848648 182 182 182
83.000000 -33.000000 125.494148 181 181 181
84.000000 -33.000000 125.848648 177 177 177
85.000000 -33.000000 125.139648 177 177 177
86.000000 -33.000000 124.430641 182 182 182
87.000000 -33.000000 124.430641 187 187 187
88.000000 -33.000000 124.430641 190 190 190
89.000000 -33.000000 124.076134 192 192 192
90.000000 -33.000000 122.303619 194 194 194
91.000000 -33.000000 122.658119 196 196 196
92.000000 -33.000000 122.303619 196 196 196
93.000000 -33.000000 122.303619 197 197 197
95.000000 -33.000000 116.631569 199 199 199
96.000000 -33.000000 116.277061 199 199 199
113.000000 -33.000000 128.330170 206 206 206
114.000000 -33.000000 130.811691 206 206 206
115.000000 -33.000000 128.684677 206 206 206
116.000000 -33.000000 128.684677 207 207 207
117.000000 -33.000000 130.102692 206 206 206
118.000000 -33.000000 130.457199 205 205 205
119.000000 -33.000000 131.520706 205 205 205
120.000000 -33.000000 130.457199 204 204 204
121.000000 -33.000000 130.102692 202 202 202
122.000000 -33.000000 129.748184 199 199 199
123.000000 -33.000000 129.748184 193 193 193
124.000000 -33.000000 129.748184 187 187 187
125.000000 -33.000000 129.393677 188 188 188
126.000000 -33.000000 129.393677 197 197 197
127.000000 -33.000000 129.748184 201 201 201
128.000000 -33.000000 129.393677 201 201 201
129.000000 -33.000000 129.039185 201 201 201
130.000000 -33.000000 127.975670 200 200 200
136.000000 -33.000000 76.218201 187 187 187
137.000000 -33.000000 81.181244 185 185 185
138.000000 -33.000000 85.435280 181 181 181
145.000000 -33.000000 128.330170 164 164 164
146.000000 -33.000000 133.293213 161 161 161
147.000000 -33.000000 137.192749 144 144 144
148.000000 -33.000000 135.774750 81 81 81
149.000000 -33.000000 137.547256 51 51 51
150.000000 -33.000000 138.965271 48 48 48
151.000000 -33.000000 140.028778 42 42 42
152.000000 -33.000000 142.155807 37 37 37
153.000000 -33.000000 144.991821 42 42 42
154.000000 -33.000000 144.637329 50 50 50
68.000000 -34.000000 119.467590 172 172 172
69.000000 -34.000000 121.949120 174 174 174
70.000000 -34.000000 122.303619 175 175 175
71.000000 -34.000000 122.658119 177 177 177
72.000000 -34.000000 122.658119 178 178 178
74.000000 -34.000000 123.012627 179 179 179
75.000000 -34.000000 126.912163 179 179 179
76.000000 -34.000000 126.203156 181 181 181
77.000000 -34.000000 126.912163 182 182 182
78.000000 -34.000000 127.266663 182 182 182
79.000000 -34.000000 127.621170 182 182 182
80.000000 -34.000000 126.203156 182 182 182
81.000000 -34.000000 126.203156 182 182 182
82.000000 -34.000000 126.203156 183 183 183
83.000000 -34.000000 125.848648 184 184 184
84.000000 -34.000000 125.848648 185 185 185
85.000000 -34.000000 125.494148 185 185 185
86.000000 -34.000000 124.785141 186 186 186
87.000000 -34.000000 124.785141 188 188 188
88.000000 -34.000000 124.430641 190 190 190
