ply
		format ascii 1.0
		element vertex 4872
		property float x
		property float y
		property float z
		property uchar red
		property uchar green
		property uchar blue
		end_header
134.000000 -60.000000 142.155807 107 107 107
144.000000 -60.000000 143.928314 89 89 89
148.000000 -60.000000 322.243439 81 81 81
153.000000 -60.000000 147.827850 117 117 117
68.000000 -61.000000 172.643082 13 13 13
69.000000 -61.000000 172.288574 13 13 13
70.000000 -61.000000 171.579575 14 14 14
72.000000 -61.000000 166.262024 19 19 19
73.000000 -61.000000 166.616531 19 19 19
74.000000 -61.000000 166.971024 19 19 19
75.000000 -61.000000 168.034531 19 19 19
76.000000 -61.000000 169.452545 18 18 18
77.000000 -61.000000 171.934067 16 16 16
78.000000 -61.000000 172.288574 14 14 14
80.000000 -61.000000 169.452545 47 47 47
81.000000 -61.000000 171.579575 77 77 77
82.000000 -61.000000 171.934067 88 88 88
91.000000 -61.000000 201.712341 25 25 25
92.000000 -61.000000 202.066849 17 17 17
93.000000 -61.000000 202.775848 15 15 15
94.000000 -61.000000 203.484863 23 23 23
95.000000 -61.000000 204.193863 29 29 29
96.000000 -61.000000 204.548370 31 31 31
97.000000 -61.000000 205.257385 30 30 30
98.000000 -61.000000 204.548370 27 27 27
99.000000 -61.000000 205.257385 26 26 26
100.000000 -61.000000 205.611877 28 28 28
101.000000 -61.000000 205.611877 28 28 28
102.000000 -61.000000 205.611877 25 25 25
103.000000 -61.000000 205.611877 25 25 25
104.000000 -61.000000 203.484863 27 27 27
105.000000 -61.000000 202.066849 26 26 26
106.000000 -61.000000 200.294327 18 18 18
107.000000 -61.000000 198.521820 16 16 16
108.000000 -61.000000 197.103806 20 20 20
109.000000 -61.000000 196.040298 23 23 23
110.000000 -61.000000 196.394791 22 22 22
111.000000 -61.000000 196.040298 24 24 24
112.000000 -61.000000 195.685791 28 28 28
113.000000 -61.000000 196.394791 33 33 33
114.000000 -61.000000 196.040298 33 33 33
115.000000 -61.000000 196.394791 28 28 28
116.000000 -61.000000 196.040298 33 33 33
117.000000 -61.000000 196.040298 47 47 47
118.000000 -61.000000 195.685791 54 54 54
119.000000 -61.000000 195.331284 59 59 59
120.000000 -61.000000 195.331284 50 50 50
121.000000 -61.000000 194.267776 40 40 40
123.000000 -61.000000 185.405197 95 95 95
126.000000 -61.000000 185.405197 117 117 117
127.000000 -61.000000 186.468704 118 118 118
148.000000 -61.000000 322.952454 85 85 85
150.000000 -61.000000 145.346329 114 114 114
151.000000 -61.000000 145.700836 115 115 115
153.000000 -61.000000 147.827850 112 112 112
69.000000 -62.000000 172.288574 14 14 14
71.000000 -62.000000 163.071487 15 15 15
72.000000 -62.000000 165.553009 19 19 19
73.000000 -62.000000 165.907516 22 22 22
74.000000 -62.000000 166.616531 21 21 21
75.000000 -62.000000 168.389038 19 19 19
76.000000 -62.000000 169.807053 17 17 17
77.000000 -62.000000 171.934067 15 15 15
78.000000 -62.000000 171.934067 18 18 18
79.000000 -62.000000 171.579575 31 31 31
80.000000 -62.000000 170.516068 61 61 61
81.000000 -62.000000 171.934067 79 79 79
82.000000 -62.000000 171.934067 86 86 86
88.000000 -62.000000 114.150047 33 33 33
91.000000 -62.000000 201.712341 24 24 24
92.000000 -62.000000 202.421356 18 18 18
93.000000 -62.000000 202.775848 15 15 15
94.000000 -62.000000 203.484863 23 23 23
95.000000 -62.000000 204.193863 30 30 30
96.000000 -62.000000 204.902878 35 35 35
97.000000 -62.000000 205.257385 36 36 36
98.000000 -62.000000 204.902878 31 31 31
99.000000 -62.000000 205.257385 30 30 30
100.000000 -62.000000 205.611877 33 33 33
101.000000 -62.000000 205.966385 30 30 30
102.000000 -62.000000 205.611877 26 26 26
103.000000 -62.000000 205.611877 26 26 26
104.000000 -62.000000 204.193863 25 25 25
105.000000 -62.000000 202.775848 23 23 23
106.000000 -62.000000 200.648834 17 17 17
107.000000 -62.000000 198.876328 14 14 14
108.000000 -62.000000 196.749298 19 19 19
109.000000 -62.000000 196.040298 21 21 21
110.000000 -62.000000 196.040298 21 21 21
111.000000 -62.000000 196.040298 20 20 20
112.000000 -62.000000 195.331284 18 18 18
113.000000 -62.000000 196.040298 18 18 18
114.000000 -62.000000 196.040298 19 19 19
115.000000 -62.000000 196.040298 19 19 19
116.000000 -62.000000 195.685791 22 22 22
117.000000 -62.000000 195.331284 26 26 26
118.000000 -62.000000 194.976791 29 29 29
119.000000 -62.000000 193.913269 31 31 31
120.000000 -62.000000 193.204269 29 29 29
121.000000 -62.000000 191.077255 28 28 28
123.000000 -62.000000 183.632675 103 103 103
124.000000 -62.000000 183.632675 118 118 118
125.000000 -62.000000 183.632675 118 118 118
126.000000 -62.000000 183.987183 118 118 118
127.000000 -62.000000 184.341690 118 118 118
150.000000 -62.000000 145.346329 106 106 106
151.000000 -62.000000 145.700836 108 108 108
152.000000 -62.000000 146.055344 107 107 107
153.000000 -62.000000 147.827850 104 104 104
72.000000 -63.000000 163.780502 18 18 18
73.000000 -63.000000 163.425995 21 21 21
74.000000 -63.000000 166.262024 20 20 20
75.000000 -63.000000 168.389038 18 18 18
76.000000 -63.000000 169.807053 15 15 15
77.000000 -63.000000 171.579575 16 16 16
78.000000 -63.000000 171.934067 25 25 25
79.000000 -63.000000 171.579575 50 50 50
80.000000 -63.000000 171.225067 74 74 74
81.000000 -63.000000 171.934067 80 80 80
82.000000 -63.000000 171.934067 88 88 88
83.000000 -63.000000 172.643082 96 96 96
91.000000 -63.000000 201.357849 23 23 23
92.000000 -63.000000 202.066849 19 19 19
93.000000 -63.000000 202.775848 14 14 14
94.000000 -63.000000 203.484863 18 18 18
95.000000 -63.000000 204.193863 24 24 24
96.000000 -63.000000 204.902878 27 27 27
97.000000 -63.000000 205.257385 29 29 29
98.000000 -63.000000 204.902878 28 28 28
99.000000 -63.000000 204.902878 29 29 29
100.000000 -63.000000 205.611877 34 34 34
101.000000 -63.000000 205.611877 31 31 31
102.000000 -63.000000 205.611877 26 26 26
103.000000 -63.000000 204.902878 24 24 24
104.000000 -63.000000 204.193863 24 24 24
105.000000 -63.000000 202.775848 23 23 23
106.000000 -63.000000 201.003342 19 19 19
107.000000 -63.000000 199.939835 19 19 19
108.000000 -63.000000 197.103806 22 22 22
109.000000 -63.000000 196.040298 21 21 21
110.000000 -63.000000 196.394791 20 20 20
111.000000 -63.000000 196.040298 19 19 19
112.000000 -63.000000 195.331284 20 20 20
113.000000 -63.000000 196.040298 19 19 19
114.000000 -63.000000 196.040298 20 20 20
115.000000 -63.000000 196.040298 21 21 21
116.000000 -63.000000 195.685791 21 21 21
117.000000 -63.000000 194.976791 21 21 21
119.000000 -63.000000 192.849762 21 21 21
122.000000 -63.000000 182.214661 60 60 60
123.000000 -63.000000 182.569168 106 106 106
124.000000 -63.000000 182.923676 116 116 116
125.000000 -63.000000 182.923676 118 118 118
126.000000 -63.000000 182.923676 119 119 119
127.000000 -63.000000 182.214661 118 118 118
130.000000 -63.000000 152.436401 116 116 116
149.000000 -63.000000 145.346329 103 103 103
150.000000 -63.000000 145.346329 105 105 105
153.000000 -63.000000 148.182358 103 103 103
68.000000 -64.000000 170.870560 14 14 14
71.000000 -64.000000 160.944473 15 15 15
72.000000 -64.000000 162.007980 18 18 18
73.000000 -64.000000 162.007980 20 20 20
74.000000 -64.000000 165.907516 18 18 18
75.000000 -64.000000 168.034531 15 15 15
76.000000 -64.000000 169.098053 16 16 16
77.000000 -64.000000 170.870560 21 21 21
78.000000 -64.000000 171.579575 40 40 40
79.000000 -64.000000 171.225067 68 68 68
80.000000 -64.000000 171.225067 78 78 78
81.000000 -64.000000 171.934067 81 81 81
82.000000 -64.000000 172.288574 89 89 89
83.000000 -64.000000 172.997589 96 96 96
91.000000 -64.000000 201.003342 23 23 23
92.000000 -64.000000 202.066849 20 20 20
93.000000 -64.000000 202.421356 14 14 14
94.000000 -64.000000 203.130356 16 16 16
95.000000 -64.000000 203.839371 21 21 21
96.000000 -64.000000 204.548370 23 23 23
97.000000 -64.000000 204.902878 26 26 26
98.000000 -64.000000 204.548370 25 25 25
99.000000 -64.000000 204.548370 26 26 26
100.000000 -64.000000 205.257385 31 31 31
101.000000 -64.000000 205.257385 31 31 31
102.000000 -64.000000 205.257385 25 25 25
103.000000 -64.000000 204.902878 23 23 23
104.000000 -64.000000 204.548370 23 23 23
105.000000 -64.000000 203.130356 24 24 24
106.000000 -64.000000 201.357849 23 23 23
107.000000 -64.000000 200.294327 23 23 23
108.000000 -64.000000 198.167313 23 23 23
109.000000 -64.000000 196.394791 21 21 21
110.000000 -64.000000 196.749298 21 21 21
111.000000 -64.000000 196.394791 20 20 20
112.000000 -64.000000 195.685791 20 20 20
113.000000 -64.000000 196.394791 20 20 20
114.000000 -64.000000 196.394791 22 22 22
115.000000 -64.000000 196.394791 23 23 23
120.000000 -64.000000 181.505661 22 22 22
121.000000 -64.000000 182.569168 31 31 31
122.000000 -64.000000 180.796661 73 73 73
123.000000 -64.000000 180.796661 112 112 112
124.000000 -64.000000 181.505661 118 118 118
125.000000 -64.000000 181.151154 121 121 121
126.000000 -64.000000 180.796661 122 122 122
127.000000 -64.000000 180.087646 121 121 121
129.000000 -64.000000 152.436401 120 120 120
130.000000 -64.000000 153.145401 120 120 120
146.000000 -64.000000 145.346329 96 96 96
147.000000 -64.000000 145.700836 95 95 95
148.000000 -64.000000 146.055344 98 98 98
153.000000 -64.000000 148.182358 104 104 104
70.000000 -65.000000 159.880966 16 16 16
71.000000 -65.000000 160.589966 17 17 17
72.000000 -65.000000 161.298981 17 17 17
73.000000 -65.000000 161.653473 17 17 17
74.000000 -65.000000 165.198517 16 16 16
75.000000 -65.000000 167.680038 16 16 16
76.000000 -65.000000 169.098053 21 21 21
77.000000 -65.000000 170.516068 32 32 32
78.000000 -65.000000 171.579575 59 59 59
79.000000 -65.000000 171.225067 76 76 76
80.000000 -65.000000 171.579575 81 81 81
81.000000 -65.000000 172.288574 84 84 84
82.000000 -65.000000 172.643082 89 89 89
83.000000 -65.000000 172.997589 92 92 92
84.000000 -65.000000 174.770096 95 95 95
90.000000 -65.000000 199.230820 25 25 25
91.000000 -65.000000 200.648834 23 23 23
92.000000 -65.000000 201.712341 20 20 20
93.000000 -65.000000 202.421356 14 14 14
94.000000 -65.000000 202.775848 14 14 14
95.000000 -65.000000 203.839371 20 20 20
96.000000 -65.000000 204.193863 23 23 23
97.000000 -65.000000 204.548370 25 25 25
98.000000 -65.000000 204.548370 24 24 24
99.000000 -65.000000 204.548370 24 24 24
100.000000 -65.000000 204.902878 28 28 28
101.000000 -65.000000 205.257385 29 29 29
102.000000 -65.000000 204.902878 25 25 25
103.000000 -65.000000 204.902878 22 22 22
104.000000 -65.000000 204.548370 23 23 23
105.000000 -65.000000 203.839371 23 23 23
106.000000 -65.000000 202.066849 24 24 24
107.000000 -65.000000 200.648834 22 22 22
108.000000 -65.000000 199.585327 21 21 21
109.000000 -65.000000 197.103806 20 20 20
110.000000 -65.000000 196.394791 22 22 22
111.000000 -65.000000 196.040298 22 22 22
112.000000 -65.000000 195.331284 21 21 21
113.000000 -65.000000 196.040298 21 21 21
118.000000 -65.000000 181.860168 21 21 21
119.000000 -65.000000 180.442154 21 21 21
120.000000 -65.000000 180.442154 23 23 23
121.000000 -65.000000 180.442154 39 39 39
122.000000 -65.000000 179.733139 91 91 91
123.000000 -65.000000 180.087646 119 119 119
124.000000 -65.000000 180.087646 122 122 122
125.000000 -65.000000 180.087646 125 125 125
126.000000 -65.000000 179.378647 128 128 128
134.000000 -65.000000 115.213554 124 124 124
135.000000 -65.000000 116.277061 123 123 123
136.000000 -65.000000 117.340576 120 120 120
137.000000 -65.000000 120.531105 117 117 117
141.000000 -65.000000 62.392570 100 100 100
146.000000 -65.000000 145.700836 99 99 99
147.000000 -65.000000 146.055344 98 98 98
148.000000 -65.000000 146.055344 101 101 101
153.000000 -65.000000 147.827850 105 105 105
69.000000 -66.000000 158.462952 14 14 14
70.000000 -66.000000 159.526459 15 15 15
71.000000 -66.000000 160.235474 15 15 15
72.000000 -66.000000 160.589966 15 15 15
73.000000 -66.000000 161.298981 16 16 16
74.000000 -66.000000 164.844009 18 18 18
75.000000 -66.000000 167.680038 21 21 21
76.000000 -66.000000 169.098053 29 29 29
77.000000 -66.000000 171.225067 49 49 49
78.000000 -66.000000 172.288574 68 68 68
79.000000 -66.000000 171.934067 78 78 78
80.000000 -66.000000 172.288574 84 84 84
81.000000 -66.000000 172.643082 89 89 89
82.000000 -66.000000 172.997589 91 91 91
83.000000 -66.000000 173.706589 91 91 91
84.000000 -66.000000 175.479111 92 92 92
90.000000 -66.000000 198.521820 25 25 25
91.000000 -66.000000 200.294327 22 22 22
92.000000 -66.000000 201.712341 20 20 20
93.000000 -66.000000 202.421356 16 16 16
94.000000 -66.000000 202.775848 14 14 14
95.000000 -66.000000 203.484863 19 19 19
96.000000 -66.000000 204.193863 22 22 22
97.000000 -66.000000 204.548370 24 24 24
98.000000 -66.000000 204.193863 24 24 24
99.000000 -66.000000 204.193863 23 23 23
100.000000 -66.000000 204.902878 25 25 25
101.000000 -66.000000 204.902878 28 28 28
102.000000 -66.000000 204.902878 25 25 25
103.000000 -66.000000 204.902878 22 22 22
104.000000 -66.000000 204.548370 22 22 22
105.000000 -66.000000 204.548370 22 22 22
106.000000 -66.000000 202.421356 22 22 22
107.000000 -66.000000 201.357849 22 22 22
108.000000 -66.000000 199.939835 21 21 21
109.000000 -66.000000 197.103806 20 20 20
110.000000 -66.000000 195.685791 22 22 22
111.000000 -66.000000 194.976791 21 21 21
112.000000 -66.000000 193.558777 18 18 18
113.000000 -66.000000 193.913269 18 18 18
118.000000 -66.000000 181.860168 23 23 23
119.000000 -66.000000 180.442154 23 23 23
120.000000 -66.000000 180.087646 25 25 25
121.000000 -66.000000 179.733139 53 53 53
122.000000 -66.000000 179.378647 106 106 106
123.000000 -66.000000 179.378647 121 121 121
124.000000 -66.000000 179.733139 124 124 124
125.000000 -66.000000 179.378647 127 127 127
128.000000 -66.000000 150.663879 131 131 131
134.000000 -66.000000 115.213554 129 129 129
135.000000 -66.000000 116.277061 128 128 128
136.000000 -66.000000 117.695076 125 125 125
137.000000 -66.000000 120.531105 123 123 123
140.000000 -66.000000 60.265553 113 113 113
141.000000 -66.000000 62.038067 110 110 110
146.000000 -66.000000 145.346329 104 104 104
147.000000 -66.000000 145.700836 105 105 105
154.000000 -66.000000 0.000000 109 109 109
69.000000 -67.000000 159.171951 14 14 14
70.000000 -67.000000 160.235474 15 15 15
71.000000 -67.000000 160.589966 15 15 15
72.000000 -67.000000 160.589966 17 17 17
73.000000 -67.000000 161.298981 18 18 18
74.000000 -67.000000 164.844009 22 22 22
75.000000 -67.000000 167.680038 29 29 29
76.000000 -67.000000 170.516068 45 45 45
77.000000 -67.000000 172.288574 61 61 61
78.000000 -67.000000 172.997589 72 72 72
79.000000 -67.000000 172.643082 82 82 82
80.000000 -67.000000 172.997589 88 88 88
81.000000 -67.000000 173.352081 91 91 91
82.000000 -67.000000 173.706589 92 92 92
83.000000 -67.000000 174.415604 92 92 92
84.000000 -67.000000 176.542618 91 91 91
90.000000 -67.000000 197.458313 26 26 26
91.000000 -67.000000 199.939835 22 22 22
92.000000 -67.000000 201.357849 21 21 21
93.000000 -67.000000 202.066849 17 17 17
94.000000 -67.000000 202.775848 13 13 13
95.000000 -67.000000 203.484863 16 16 16
96.000000 -67.000000 204.193863 20 20 20
97.000000 -67.000000 204.548370 23 23 23
98.000000 -67.000000 204.193863 24 24 24
99.000000 -67.000000 204.193863 22 22 22
100.000000 -67.000000 204.548370 24 24 24
101.000000 -67.000000 204.902878 29 29 29
102.000000 -67.000000 204.902878 26 26 26
103.000000 -67.000000 204.902878 22 22 22
104.000000 -67.000000 204.902878 22 22 22
105.000000 -67.000000 204.902878 22 22 22
106.000000 -67.000000 203.484863 22 22 22
107.000000 -67.000000 202.066849 22 22 22
108.000000 -67.000000 200.294327 22 22 22
109.000000 -67.000000 196.040298 22 22 22
110.000000 -67.000000 193.558777 22 22 22
111.000000 -67.000000 190.013733 21 21 21
112.000000 -67.000000 190.013733 16 16 16
113.000000 -67.000000 190.013733 16 16 16
114.000000 -67.000000 188.595718 23 23 23
115.000000 -67.000000 185.759705 24 24 24
116.000000 -67.000000 184.696198 23 23 23
117.000000 -67.000000 183.987183 23 23 23
118.000000 -67.000000 182.923676 24 24 24
119.000000 -67.000000 181.151154 24 24 24
120.000000 -67.000000 180.087646 31 31 31
121.000000 -67.000000 179.733139 70 70 70
122.000000 -67.000000 179.378647 110 110 110
123.000000 -67.000000 179.378647 116 116 116
124.000000 -67.000000 179.733139 118 118 118
128.000000 -67.000000 150.663879 125 125 125
134.000000 -67.000000 115.568054 124 124 124
135.000000 -67.000000 116.631569 125 125 125
136.000000 -67.000000 118.404083 124 124 124
137.000000 -67.000000 120.885605 123 123 123
139.000000 -67.000000 58.493034 117 117 117
146.000000 -67.000000 144.637329 102 102 102
154.000000 -67.000000 0.000000 112 112 112
69.000000 -68.000000 160.235474 14 14 14
70.000000 -68.000000 160.589966 16 16 16
71.000000 -68.000000 160.944473 18 18 18
72.000000 -68.000000 160.235474 19 19 19
73.000000 -68.000000 161.298981 23 23 23
74.000000 -68.000000 165.553009 34 34 34
75.000000 -68.000000 168.743546 51 51 51
76.000000 -68.000000 172.643082 68 68 68
77.000000 -68.000000 173.706589 77 77 77
78.000000 -68.000000 173.706589 85 85 85
79.000000 -68.000000 173.706589 91 91 91
80.000000 -68.000000 173.706589 94 94 94
81.000000 -68.000000 174.415604 94 94 94
82.000000 -68.000000 175.124603 94 94 94
83.000000 -68.000000 175.833603 93 93 93
84.000000 -68.000000 177.606125 90 90 90
85.000000 -68.000000 179.024139 88 88 88
90.000000 -68.000000 196.749298 26 26 26
91.000000 -68.000000 199.230820 21 21 21
92.000000 -68.000000 201.003342 20 20 20
93.000000 -68.000000 201.712341 19 19 19
94.000000 -68.000000 202.421356 14 14 14
95.000000 -68.000000 203.130356 13 13 13
96.000000 -68.000000 203.839371 19 19 19
97.000000 -68.000000 204.193863 23 23 23
98.000000 -68.000000 204.193863 26 26 26
99.000000 -68.000000 204.193863 22 22 22
100.000000 -68.000000 204.548370 23 23 23
101.000000 -68.000000 204.902878 28 28 28
102.000000 -68.000000 204.902878 27 27 27
103.000000 -68.000000 205.257385 22 22 22
104.000000 -68.000000 205.611877 21 21 21
105.000000 -68.000000 205.611877 21 21 21
106.000000 -68.000000 204.548370 22 22 22
107.000000 -68.000000 202.775848 22 22 22
109.000000 -68.000000 192.495255 21 21 21
110.000000 -68.000000 190.368240 22 22 22
111.000000 -68.000000 189.304733 22 22 22
112.000000 -68.000000 188.950226 20 20 20
113.000000 -68.000000 187.886719 22 22 22
114.000000 -68.000000 186.468704 26 26 26
115.000000 -68.000000 184.696198 25 25 25
116.000000 -68.000000 184.341690 26 26 26
117.000000 -68.000000 183.632675 26 26 26
118.000000 -68.000000 182.214661 25 25 25
119.000000 -68.000000 180.442154 27 27 27
120.000000 -68.000000 179.733139 44 44 44
121.000000 -68.000000 179.378647 91 91 91
122.000000 -68.000000 179.378647 115 115 115
123.000000 -68.000000 179.378647 116 116 116
134.000000 -68.000000 115.922562 119 119 119
135.000000 -68.000000 117.695076 121 121 121
136.000000 -68.000000 120.531105 120 120 120
137.000000 -68.000000 121.949120 119 119 119
139.000000 -68.000000 57.429527 114 114 114
140.000000 -68.000000 59.556545 111 111 111
144.000000 -68.000000 143.219315 98 98 98
145.000000 -68.000000 143.928314 95 95 95
146.000000 -68.000000 144.282822 93 93 93
147.000000 -68.000000 144.637329 93 93 93
149.000000 -68.000000 244.252731 104 104 104
154.000000 -68.000000 0.000000 103 103 103
69.000000 -69.000000 158.462952 16 16 16
70.000000 -69.000000 159.171951 17 17 17
71.000000 -69.000000 159.171951 20 20 20
72.000000 -69.000000 157.044937 25 25 25
73.000000 -69.000000 160.589966 38 38 38
74.000000 -69.000000 165.553009 61 61 61
75.000000 -69.000000 169.452545 80 80 80
76.000000 -69.000000 173.352081 90 90 90
77.000000 -69.000000 175.479111 94 94 94
78.000000 -69.000000 174.415604 97 97 97
79.000000 -69.000000 174.415604 101 101 101
80.000000 -69.000000 174.770096 103 103 103
81.000000 -69.000000 175.479111 104 104 104
82.000000 -69.000000 176.188110 103 103 103
83.000000 -69.000000 176.542618 100 100 100
84.000000 -69.000000 177.606125 95 95 95
90.000000 -69.000000 196.040298 25 25 25
91.000000 -69.000000 198.167313 22 22 22
92.000000 -69.000000 200.648834 21 21 21
93.000000 -69.000000 201.357849 19 19 19
94.000000 -69.000000 202.066849 15 15 15
95.000000 -69.000000 202.775848 12 12 12
96.000000 -69.000000 203.484863 17 17 17
97.000000 -69.000000 203.839371 22 22 22
98.000000 -69.000000 203.839371 26 26 26
99.000000 -69.000000 203.839371 23 23 23
100.000000 -69.000000 204.193863 22 22 22
101.000000 -69.000000 204.548370 26 26 26
102.000000 -69.000000 204.902878 27 27 27
103.000000 -69.000000 205.257385 23 23 23
104.000000 -69.000000 205.611877 22 22 22
105.000000 -69.000000 205.611877 21 21 21
106.000000 -69.000000 205.611877 21 21 21
107.000000 -69.000000 203.839371 22 22 22
109.000000 -69.000000 190.722748 22 22 22
110.000000 -69.000000 189.659241 22 22 22
111.000000 -69.000000 188.950226 23 23 23
112.000000 -69.000000 188.241226 26 26 26
113.000000 -69.000000 187.177719 28 28 28
114.000000 -69.000000 186.114197 27 27 27
115.000000 -69.000000 184.696198 27 27 27
116.000000 -69.000000 184.696198 28 28 28
117.000000 -69.000000 183.632675 25 25 25
118.000000 -69.000000 182.214661 27 27 27
119.000000 -69.000000 180.087646 33 33 33
120.000000 -69.000000 179.733139 63 63 63
121.000000 -69.000000 179.378647 106 106 106
122.000000 -69.000000 179.378647 118 118 118
123.000000 -69.000000 179.024139 118 118 118
134.000000 -69.000000 117.340576 119 119 119
135.000000 -69.000000 120.531105 119 119 119
136.000000 -69.000000 121.594612 118 118 118
137.000000 -69.000000 123.012627 117 117 117
139.000000 -69.000000 55.302505 112 112 112
140.000000 -69.000000 56.720520 108 108 108
144.000000 -69.000000 142.510300 97 97 97
145.000000 -69.000000 143.573807 93 93 93
146.000000 -69.000000 143.928314 91 91 91
147.000000 -69.000000 144.282822 92 92 92
154.000000 -69.000000 0.000000 98 98 98
70.000000 -70.000000 156.335938 28 28 28
72.000000 -70.000000 155.626923 46 46 46
73.000000 -70.000000 159.171951 61 61 61
77.000000 -70.000000 176.188110 94 94 94
78.000000 -70.000000 174.770096 99 99 99
79.000000 -70.000000 174.770096 103 103 103
80.000000 -70.000000 175.124603 105 105 105
81.000000 -70.000000 175.479111 107 107 107
82.000000 -70.000000 175.833603 107 107 107
83.000000 -70.000000 176.542618 105 105 105
84.000000 -70.000000 176.897125 99 99 99
85.000000 -70.000000 177.606125 94 94 94
90.000000 -70.000000 194.622284 24 24 24
91.000000 -70.000000 197.103806 23 23 23
92.000000 -70.000000 199.939835 22 22 22
93.000000 -70.000000 201.003342 19 19 19
94.000000 -70.000000 201.712341 17 17 17
95.000000 -70.000000 202.421356 14 14 14
96.000000 -70.000000 203.130356 14 14 14
97.000000 -70.000000 203.484863 19 19 19
98.000000 -70.000000 203.484863 22 22 22
99.000000 -70.000000 203.484863 23 23 23
100.000000 -70.000000 203.484863 20 20 20
101.000000 -70.000000 203.839371 24 24 24
102.000000 -70.000000 204.193863 26 26 26
103.000000 -70.000000 204.548370 24 24 24
104.000000 -70.000000 204.902878 22 22 22
105.000000 -70.000000 205.257385 21 21 21
106.000000 -70.000000 205.257385 21 21 21
107.000000 -70.000000 203.484863 21 21 21
109.000000 -70.000000 190.013733 23 23 23
110.000000 -70.000000 189.304733 23 23 23
111.000000 -70.000000 188.595718 24 24 24
112.000000 -70.000000 187.532211 28 28 28
113.000000 -70.000000 186.468704 29 29 29
114.000000 -70.000000 185.759705 30 30 30
115.000000 -70.000000 184.696198 29 29 29
116.000000 -70.000000 184.341690 28 28 28
117.000000 -70.000000 183.278183 26 26 26
118.000000 -70.000000 181.860168 29 29 29
119.000000 -70.000000 179.733139 43 43 43
120.000000 -70.000000 179.378647 85 85 85
121.000000 -70.000000 179.024139 114 114 114
122.000000 -70.000000 179.024139 118 118 118
123.000000 -70.000000 178.669632 120 120 120
133.000000 -70.000000 120.531105 123 123 123
134.000000 -70.000000 119.822098 122 122 122
135.000000 -70.000000 121.594612 120 120 120
136.000000 -70.000000 121.949120 118 118 118
137.000000 -70.000000 124.430641 117 117 117
138.000000 -70.000000 127.266663 115 115 115
140.000000 -70.000000 55.302505 107 107 107
141.000000 -70.000000 57.784027 104 104 104
143.000000 -70.000000 140.383286 100 100 100
144.000000 -70.000000 142.155807 97 97 97
145.000000 -70.000000 143.219315 93 93 93
146.000000 -70.000000 143.928314 93 93 93
147.000000 -70.000000 144.282822 94 94 94
148.000000 -70.000000 144.282822 98 98 98
154.000000 -70.000000 0.000000 100 100 100
69.000000 -71.000000 154.917923 45 45 45
70.000000 -71.000000 155.272415 49 49 49
72.000000 -71.000000 155.272415 57 57 57
73.000000 -71.000000 158.108444 63 63 63
77.000000 -71.000000 174.770096 82 82 82
78.000000 -71.000000 174.061096 88 88 88
79.000000 -71.000000 174.061096 94 94 94
80.000000 -71.000000 174.770096 96 96 96
81.000000 -71.000000 175.124603 99 99 99
82.000000 -71.000000 175.833603 103 103 103
83.000000 -71.000000 176.188110 102 102 102
84.000000 -71.000000 175.833603 97 97 97
90.000000 -71.000000 191.786255 29 29 29
91.000000 -71.000000 196.394791 22 22 22
92.000000 -71.000000 198.521820 22 22 22
93.000000 -71.000000 200.294327 20 20 20
94.000000 -71.000000 201.357849 19 19 19
95.000000 -71.000000 202.066849 16 16 16
96.000000 -71.000000 202.775848 13 13 13
97.000000 -71.000000 202.775848 17 17 17
98.000000 -71.000000 203.130356 20 20 20
99.000000 -71.000000 203.130356 21 21 21
100.000000 -71.000000 203.130356 20 20 20
101.000000 -71.000000 203.484863 21 21 21
102.000000 -71.000000 203.484863 25 25 25
103.000000 -71.000000 203.484863 24 24 24
104.000000 -71.000000 204.193863 22 22 22
105.000000 -71.000000 203.839371 22 22 22
106.000000 -71.000000 204.193863 22 22 22
109.000000 -71.000000 190.013733 21 21 21
110.000000 -71.000000 189.304733 23 23 23
111.000000 -71.000000 187.886719 25 25 25
112.000000 -71.000000 187.177719 27 27 27
113.000000 -71.000000 186.468704 28 28 28
114.000000 -71.000000 185.405197 29 29 29
115.000000 -71.000000 184.696198 27 27 27
116.000000 -71.000000 184.341690 27 27 27
117.000000 -71.000000 182.569168 32 32 32
118.000000 -71.000000 181.505661 39 39 39
119.000000 -71.000000 179.378647 65 65 65
120.000000 -71.000000 179.024139 107 107 107
121.000000 -71.000000 179.024139 120 120 120
122.000000 -71.000000 179.024139 122 122 122
123.000000 -71.000000 177.960632 124 124 124
132.000000 -71.000000 123.721634 127 127 127
133.000000 -71.000000 121.594612 127 127 127
134.000000 -71.000000 121.240112 126 126 126
135.000000 -71.000000 121.594612 124 124 124
136.000000 -71.000000 122.658119 123 123 123
137.000000 -71.000000 125.494148 121 121 121
138.000000 -71.000000 127.975670 119 119 119
140.000000 -71.000000 54.948002 109 109 109
141.000000 -71.000000 56.366016 106 106 106
143.000000 -71.000000 140.028778 101 101 101
144.000000 -71.000000 141.801300 98 98 98
145.000000 -71.000000 143.219315 95 95 95
146.000000 -71.000000 143.573807 93 93 93
147.000000 -71.000000 143.928314 94 94 94
148.000000 -71.000000 144.282822 98 98 98
154.000000 -71.000000 0.000000 99 99 99
69.000000 -72.000000 154.917923 53 53 53
72.000000 -72.000000 154.917923 52 52 52
73.000000 -72.000000 157.399445 54 54 54
77.000000 -72.000000 173.352081 72 72 72
78.000000 -72.000000 173.352081 79 79 79
79.000000 -72.000000 173.706589 85 85 85
80.000000 -72.000000 174.415604 87 87 87
81.000000 -72.000000 174.415604 91 91 91
82.000000 -72.000000 174.770096 97 97 97
83.000000 -72.000000 175.124603 97 97 97
91.000000 -72.000000 196.040298 28 28 28
92.000000 -72.000000 197.103806 22 22 22
93.000000 -72.000000 199.585327 20 20 20
94.000000 -72.000000 200.648834 20 20 20
95.000000 -72.000000 201.712341 18 18 18
96.000000 -72.000000 202.421356 14 14 14
97.000000 -72.000000 202.421356 14 14 14
98.000000 -72.000000 202.775848 18 18 18
99.000000 -72.000000 202.775848 20 20 20
100.000000 -72.000000 202.775848 21 21 21
101.000000 -72.000000 202.775848 19 19 19
102.000000 -72.000000 203.130356 22 22 22
103.000000 -72.000000 203.130356 23 23 23
104.000000 -72.000000 203.484863 23 23 23
105.000000 -72.000000 203.130356 22 22 22
106.000000 -72.000000 203.484863 22 22 22
109.000000 -72.000000 189.304733 21 21 21
110.000000 -72.000000 187.886719 21 21 21
111.000000 -72.000000 186.468704 22 22 22
112.000000 -72.000000 186.114197 23 23 23
113.000000 -72.000000 185.759705 24 24 24
114.000000 -72.000000 185.050690 25 25 25
115.000000 -72.000000 184.696198 26 26 26
116.000000 -72.000000 184.341690 29 29 29
117.000000 -72.000000 182.923676 38 38 38
118.000000 -72.000000 181.860168 55 55 55
119.000000 -72.000000 180.087646 93 93 93
120.000000 -72.000000 179.378647 119 119 119
121.000000 -72.000000 179.378647 126 126 126
122.000000 -72.000000 179.378647 128 128 128
126.000000 -72.000000 140.028778 133 133 133
127.000000 -72.000000 140.028778 133 133 133
131.000000 -72.000000 125.139648 133 133 133
132.000000 -72.000000 124.785141 130 130 130
133.000000 -72.000000 122.303619 129 129 129
134.000000 -72.000000 122.303619 128 128 128
135.000000 -72.000000 121.949120 127 127 127
136.000000 -72.000000 123.721634 126 126 126
137.000000 -72.000000 126.557655 124 124 124
138.000000 -72.000000 128.684677 121 121 121
142.000000 -72.000000 138.610764 103 103 103
143.000000 -72.000000 139.674271 101 101 101
144.000000 -72.000000 141.092285 99 99 99
145.000000 -72.000000 142.510300 98 98 98
146.000000 -72.000000 143.219315 97 97 97
147.000000 -72.000000 143.573807 99 99 99
148.000000 -72.000000 143.928314 103 103 103
154.000000 -72.000000 0.000000 101 101 101
69.000000 -73.000000 154.208908 68 68 68
72.000000 -73.000000 154.563416 70 70 70
78.000000 -73.000000 173.352081 83 83 83
79.000000 -73.000000 173.706589 88 88 88
80.000000 -73.000000 174.061096 88 88 88
81.000000 -73.000000 174.061096 91 91 91
82.000000 -73.000000 174.061096 95 95 95
83.000000 -73.000000 174.415604 98 98 98
86.000000 -73.000000 176.897125 94 94 94
87.000000 -73.000000 178.315125 92 92 92
88.000000 -73.000000 179.733139 90 90 90
89.000000 -73.000000 183.632675 87 87 87
90.000000 -73.000000 187.177719 77 77 77
91.000000 -73.000000 192.140762 52 52 52
92.000000 -73.000000 196.040298 30 30 30
93.000000 -73.000000 197.458313 23 23 23
94.000000 -73.000000 199.230820 21 21 21
95.000000 -73.000000 200.648834 20 20 20
96.000000 -73.000000 201.712341 17 17 17
97.000000 -73.000000 201.712341 13 13 13
98.000000 -73.000000 202.066849 14 14 14
99.000000 -73.000000 202.421356 17 17 17
100.000000 -73.000000 202.421356 20 20 20
101.000000 -73.000000 202.421356 19 19 19
102.000000 -73.000000 202.421356 19 19 19
103.000000 -73.000000 202.421356 21 21 21
104.000000 -73.000000 202.066849 22 22 22
105.000000 -73.000000 202.066849 22 22 22
109.000000 -73.000000 187.532211 22 22 22
110.000000 -73.000000 186.114197 22 22 22
111.000000 -73.000000 185.050690 22 22 22
112.000000 -73.000000 185.050690 23 23 23
113.000000 -73.000000 184.696198 24 24 24
114.000000 -73.000000 184.341690 25 25 25
115.000000 -73.000000 184.341690 28 28 28
116.000000 -73.000000 183.987183 36 36 36
117.000000 -73.000000 183.278183 49 49 49
118.000000 -73.000000 182.569168 80 80 80
119.000000 -73.000000 181.505661 114 114 114
120.000000 -73.000000 180.087646 128 128 128
121.000000 -73.000000 180.087646 133 133 133
122.000000 -73.000000 180.087646 136 136 136
125.000000 -73.000000 138.610764 137 137 137
126.000000 -73.000000 138.965271 138 138 138
127.000000 -73.000000 138.610764 138 138 138
128.000000 -73.000000 138.610764 138 138 138
132.000000 -73.000000 126.203156 133 133 133
133.000000 -73.000000 124.076134 131 131 131
134.000000 -73.000000 123.012627 130 130 130
135.000000 -73.000000 122.658119 128 128 128
136.000000 -73.000000 125.139648 127 127 127
137.000000 -73.000000 127.266663 125 125 125
138.000000 -73.000000 129.393677 123 123 123
139.000000 -73.000000 132.938721 118 118 118
142.000000 -73.000000 137.901764 102 102 102
143.000000 -73.000000 139.319778 98 98 98
144.000000 -73.000000 140.737793 96 96 96
145.000000 -73.000000 141.801300 96 96 96
146.000000 -73.000000 142.510300 96 96 96
147.000000 -73.000000 143.219315 98 98 98
148.000000 -73.000000 143.573807 102 102 102
154.000000 -73.000000 0.000000 102 102 102
69.000000 -74.000000 153.145401 82 82 82
74.000000 -74.000000 185.050690 91 91 91
78.000000 -74.000000 173.352081 91 91 91
79.000000 -74.000000 173.352081 93 93 93
80.000000 -74.000000 173.706589 96 96 96
81.000000 -74.000000 173.352081 101 101 101
82.000000 -74.000000 173.706589 104 104 104
83.000000 -74.000000 174.061096 108 108 108
86.000000 -74.000000 176.188110 105 105 105
87.000000 -74.000000 177.960632 101 101 101
88.000000 -74.000000 179.024139 98 98 98
89.000000 -74.000000 182.569168 94 94 94
90.000000 -74.000000 184.341690 89 89 89
91.000000 -74.000000 188.241226 80 80 80
92.000000 -74.000000 191.431747 61 61 61
93.000000 -74.000000 196.040298 40 40 40
94.000000 -74.000000 197.103806 27 27 27
95.000000 -74.000000 198.876328 21 21 21
96.000000 -74.000000 199.939835 19 19 19
97.000000 -74.000000 200.648834 15 15 15
98.000000 -74.000000 201.357849 12 12 12
99.000000 -74.000000 201.712341 14 14 14
100.000000 -74.000000 201.712341 17 17 17
101.000000 -74.000000 201.712341 18 18 18
102.000000 -74.000000 201.712341 17 17 17
103.000000 -74.000000 201.357849 18 18 18
104.000000 -74.000000 199.230820 21 21 21
105.000000 -74.000000 199.230820 22 22 22
107.000000 -74.000000 191.786255 22 22 22
109.000000 -74.000000 187.886719 23 23 23
110.000000 -74.000000 185.759705 23 23 23
111.000000 -74.000000 184.696198 24 24 24
112.000000 -74.000000 184.341690 25 25 25
113.000000 -74.000000 184.341690 26 26 26
114.000000 -74.000000 183.987183 29 29 29
115.000000 -74.000000 183.987183 34 34 34
116.000000 -74.000000 183.987183 44 44 44
117.000000 -74.000000 183.987183 71 71 71
118.000000 -74.000000 183.632675 107 107 107
119.000000 -74.000000 183.278183 124 124 124
120.000000 -74.000000 181.860168 132 132 132
121.000000 -74.000000 181.860168 136 136 136
122.000000 -74.000000 183.632675 138 138 138
125.000000 -74.000000 137.901764 141 141 141
126.000000 -74.000000 138.256271 141 141 141
127.000000 -74.000000 137.901764 141 141 141
128.000000 -74.000000 137.901764 141 141 141
132.000000 -74.000000 125.848648 136 136 136
133.000000 -74.000000 124.785141 134 134 134
134.000000 -74.000000 123.367126 131 131 131
135.000000 -74.000000 122.658119 130 130 130
136.000000 -74.000000 125.139648 130 130 130
137.000000 -74.000000 127.266663 128 128 128
138.000000 -74.000000 129.393677 125 125 125
139.000000 -74.000000 132.938721 120 120 120
141.000000 -74.000000 135.065735 106 106 106
142.000000 -74.000000 137.192749 102 102 102
143.000000 -74.000000 138.965271 97 97 97
144.000000 -74.000000 140.383286 95 95 95
145.000000 -74.000000 141.092285 94 94 94
146.000000 -74.000000 141.801300 93 93 93
147.000000 -74.000000 142.510300 94 94 94
148.000000 -74.000000 143.219315 99 99 99
154.000000 -74.000000 0.000000 100 100 100
74.000000 -75.000000 186.114197 93 93 93
75.000000 -75.000000 188.241226 91 91 91
76.000000 -75.000000 191.077255 89 89 89
79.000000 -75.000000 173.352081 91 91 91
80.000000 -75.000000 173.352081 96 96 96
81.000000 -75.000000 172.997589 103 103 103
82.000000 -75.000000 173.352081 110 110 110
83.000000 -75.000000 173.706589 113 113 113
86.000000 -75.000000 175.479111 115 115 115
87.000000 -75.000000 177.606125 112 112 112
88.000000 -75.000000 178.669632 109 109 109
89.000000 -75.000000 181.151154 104 104 104
90.000000 -75.000000 183.632675 99 99 99
91.000000 -75.000000 184.696198 94 94 94
92.000000 -75.000000 187.886719 89 89 89
93.000000 -75.000000 190.722748 78 78 78
94.000000 -75.000000 194.976791 60 60 60
95.000000 -75.000000 196.394791 45 45 45
96.000000 -75.000000 197.103806 34 34 34
97.000000 -75.000000 197.812805 22 22 22
98.000000 -75.000000 199.585327 13 13 13
99.000000 -75.000000 200.648834 11 11 11
100.000000 -75.000000 201.003342 13 13 13
101.000000 -75.000000 200.294327 15 15 15
102.000000 -75.000000 199.585327 17 17 17
103.000000 -75.000000 197.458313 18 18 18
104.000000 -75.000000 196.040298 19 19 19
105.000000 -75.000000 196.394791 21 21 21
107.000000 -75.000000 193.204269 23 23 23
108.000000 -75.000000 191.431747 25 25 25
109.000000 -75.000000 190.368240 25 25 25
110.000000 -75.000000 189.304733 27 27 27
111.000000 -75.000000 185.759705 28 28 28
112.000000 -75.000000 185.050690 29 29 29
113.000000 -75.000000 184.341690 33 33 33
114.000000 -75.000000 184.341690 36 36 36
115.000000 -75.000000 184.341690 42 42 42
116.000000 -75.000000 183.987183 67 67 67
117.000000 -75.000000 183.987183 105 105 105
118.000000 -75.000000 183.987183 125 125 125
119.000000 -75.000000 184.341690 133 133 133
120.000000 -75.000000 183.987183 135 135 135
121.000000 -75.000000 183.632675 137 137 137
122.000000 -75.000000 185.050690 138 138 138
125.000000 -75.000000 137.901764 142 142 142
126.000000 -75.000000 138.256271 143 143 143
127.000000 -75.000000 138.256271 143 143 143
128.000000 -75.000000 138.610764 143 143 143
132.000000 -75.000000 124.076134 138 138 138
133.000000 -75.000000 124.076134 135 135 135
134.000000 -75.000000 123.012627 132 132 132
135.000000 -75.000000 122.303619 131 131 131
136.000000 -75.000000 124.785141 129 129 129
137.000000 -75.000000 127.266663 127 127 127
138.000000 -75.000000 129.748184 124 124 124
139.000000 -75.000000 132.938721 120 120 120
140.000000 -75.000000 134.002228 112 112 112
141.000000 -75.000000 134.711227 106 106 106
142.000000 -75.000000 136.129242 101 101 101
143.000000 -75.000000 138.610764 97 97 97
144.000000 -75.000000 139.674271 94 94 94
145.000000 -75.000000 140.737793 92 92 92
146.000000 -75.000000 141.092285 91 91 91
147.000000 -75.000000 141.801300 91 91 91
148.000000 -75.000000 142.864807 97 97 97
154.000000 -75.000000 0.000000 99 99 99
68.000000 -76.000000 181.860168 78 78 78
69.000000 -76.000000 183.987183 82 82 82
70.000000 -76.000000 185.050690 83 83 83
71.000000 -76.000000 186.114197 82 82 82
72.000000 -76.000000 186.823212 84 84 84
73.000000 -76.000000 186.468704 85 85 85
74.000000 -76.000000 187.532211 86 86 86
75.000000 -76.000000 189.304733 86 86 86
76.000000 -76.000000 191.786255 85 85 85
80.000000 -76.000000 172.643082 92 92 92
81.000000 -76.000000 171.934067 99 99 99
82.000000 -76.000000 172.997589 109 109 109
83.000000 -76.000000 173.352081 114 114 114
85.000000 -76.000000 173.352081 117 117 117
86.000000 -76.000000 174.770096 117 117 117
87.000000 -76.000000 177.251617 117 117 117
88.000000 -76.000000 178.669632 115 115 115
89.000000 -76.000000 180.796661 112 112 112
90.000000 -76.000000 182.923676 109 109 109
91.000000 -76.000000 184.341690 107 107 107
92.000000 -76.000000 185.050690 103 103 103
93.000000 -76.000000 188.241226 100 100 100
94.000000 -76.000000 190.368240 95 95 95
95.000000 -76.000000 193.558777 84 84 84
96.000000 -76.000000 196.040298 64 64 64
97.000000 -76.000000 196.394791 34 34 34
98.000000 -76.000000 197.458313 14 14 14
99.000000 -76.000000 199.230820 10 10 10
100.000000 -76.000000 199.585327 9 9 9
101.000000 -76.000000 198.876328 10 10 10
102.000000 -76.000000 198.167313 12 12 12
103.000000 -76.000000 197.103806 14 14 14
104.000000 -76.000000 196.040298 15 15 15
105.000000 -76.000000 196.394791 18 18 18
106.000000 -76.000000 196.040298 21 21 21
107.000000 -76.000000 195.685791 24 24 24
108.000000 -76.000000 194.976791 24 24 24
109.000000 -76.000000 192.140762 25 25 25
110.000000 -76.000000 191.431747 27 27 27
111.000000 -76.000000 190.013733 28 28 28
112.000000 -76.000000 185.405197 31 31 31
114.000000 -76.000000 183.987183 44 44 44
115.000000 -76.000000 182.923676 71 71 71
116.000000 -76.000000 182.214661 107 107 107
117.000000 -76.000000 182.923676 129 129 129
118.000000 -76.000000 183.987183 136 136 136
119.000000 -76.000000 184.696198 139 139 139
122.000000 -76.000000 185.405197 141 141 141
123.000000 -76.000000 186.114197 141 141 141
125.000000 -76.000000 138.256271 145 145 145
126.000000 -76.000000 138.610764 145 145 145
127.000000 -76.000000 138.256271 144 144 144
128.000000 -76.000000 138.610764 143 143 143
133.000000 -76.000000 124.430641 138 138 138
134.000000 -76.000000 124.076134 135 135 135
135.000000 -76.000000 122.658119 133 133 133
136.000000 -76.000000 125.139648 130 130 130
137.000000 -76.000000 127.266663 128 128 128
138.000000 -76.000000 130.102692 124 124 124
139.000000 -76.000000 133.293213 119 119 119
140.000000 -76.000000 134.002228 112 112 112
141.000000 -76.000000 134.356735 105 105 105
142.000000 -76.000000 135.774750 100 100 100
143.000000 -76.000000 138.256271 95 95 95
144.000000 -76.000000 139.319778 92 92 92
145.000000 -76.000000 140.383286 90 90 90
146.000000 -76.000000 140.737793 89 89 89
147.000000 -76.000000 141.801300 90 90 90
148.000000 -76.000000 142.864807 95 95 95
150.000000 -76.000000 249.570282 98 98 98
154.000000 -76.000000 0.000000 96 96 96
68.000000 -77.000000 183.278183 78 78 78
69.000000 -77.000000 184.696198 81 81 81
70.000000 -77.000000 185.759705 82 82 82
71.000000 -77.000000 187.532211 81 81 81
72.000000 -77.000000 187.532211 81 81 81
73.000000 -77.000000 187.177719 82 82 82
74.000000 -77.000000 188.241226 82 82 82
80.000000 -77.000000 168.743546 90 90 90
81.000000 -77.000000 169.807053 98 98 98
82.000000 -77.000000 171.934067 107 107 107
83.000000 -77.000000 172.643082 114 114 114
84.000000 -77.000000 172.288574 116 116 116
85.000000 -77.000000 172.997589 118 118 118
86.000000 -77.000000 174.061096 118 118 118
87.000000 -77.000000 176.897125 119 119 119
88.000000 -77.000000 178.669632 118 118 118
89.000000 -77.000000 180.442154 117 117 117
90.000000 -77.000000 182.214661 116 116 116
91.000000 -77.000000 183.632675 115 115 115
92.000000 -77.000000 184.341690 114 114 114
93.000000 -77.000000 186.114197 112 112 112
94.000000 -77.000000 189.659241 105 105 105
95.000000 -77.000000 191.077255 88 88 88
96.000000 -77.000000 193.913269 64 64 64
97.000000 -77.000000 195.685791 42 42 42
98.000000 -77.000000 196.749298 30 30 30
99.000000 -77.000000 197.458313 24 24 24
100.000000 -77.000000 197.812805 18 18 18
101.000000 -77.000000 198.167313 14 14 14
102.000000 -77.000000 197.458313 11 11 11
103.000000 -77.000000 196.749298 11 11 11
104.000000 -77.000000 196.040298 11 11 11
105.000000 -77.000000 196.040298 13 13 13
106.000000 -77.000000 196.040298 16 16 16
107.000000 -77.000000 195.331284 18 18 18
108.000000 -77.000000 194.976791 20 20 20
109.000000 -77.000000 192.140762 22 22 22
110.000000 -77.000000 191.786255 25 25 25
114.000000 -77.000000 181.860168 66 66 66
115.000000 -77.000000 180.442154 95 95 95
116.000000 -77.000000 180.442154 117 117 117
117.000000 -77.000000 181.151154 129 129 129
118.000000 -77.000000 183.278183 135 135 135
119.000000 -77.000000 184.696198 139 139 139
120.000000 -77.000000 184.341690 141 141 141
121.000000 -77.000000 184.696198 143 143 143
122.000000 -77.000000 185.759705 143 143 143
123.000000 -77.000000 186.468704 144 144 144
125.000000 -77.000000 138.610764 148 148 148
126.000000 -77.000000 139.319778 148 148 148
127.000000 -77.000000 138.610764 146 146 146
128.000000 -77.000000 138.965271 145 145 145
133.000000 -77.000000 125.139648 140 140 140
134.000000 -77.000000 124.785141 137 137 137
135.000000 -77.000000 123.012627 135 135 135
136.000000 -77.000000 125.494148 133 133 133
137.000000 -77.000000 127.621170 130 130 130
138.000000 -77.000000 130.457199 126 126 126
139.000000 -77.000000 133.293213 119 119 119
140.000000 -77.000000 134.356735 112 112 112
141.000000 -77.000000 134.711227 104 104 104
142.000000 -77.000000 135.774750 97 97 97
143.000000 -77.000000 137.901764 92 92 92
144.000000 -77.000000 139.319778 88 88 88
145.000000 -77.000000 140.028778 87 87 87
146.000000 -77.000000 140.737793 86 86 86
147.000000 -77.000000 141.446793 88 88 88
148.000000 -77.000000 142.864807 93 93 93
154.000000 -77.000000 0.000000 93 93 93
69.000000 -78.000000 185.050690 80 80 80
70.000000 -78.000000 186.468704 80 80 80
71.000000 -78.000000 188.595718 79 79 79
72.000000 -78.000000 187.886719 78 78 78
73.000000 -78.000000 187.177719 79 79 79
74.000000 -78.000000 188.595718 80 80 80
76.000000 -78.000000 155.272415 81 81 81
77.000000 -78.000000 156.690430 80 80 80
81.000000 -78.000000 168.389038 96 96 96
82.000000 -78.000000 171.225067 104 104 104
83.000000 -78.000000 170.870560 112 112 112
84.000000 -78.000000 171.225067 116 116 116
85.000000 -78.000000 172.643082 117 117 117
86.000000 -78.000000 174.061096 118 118 118
87.000000 -78.000000 176.897125 119 119 119
88.000000 -78.000000 178.669632 120 120 120
89.000000 -78.000000 180.087646 120 120 120
90.000000 -78.000000 181.151154 119 119 119
91.000000 -78.000000 182.923676 118 118 118
92.000000 -78.000000 183.987183 116 116 116
93.000000 -78.000000 185.405197 110 110 110
94.000000 -78.000000 188.595718 95 95 95
95.000000 -78.000000 190.368240 79 79 79
96.000000 -78.000000 192.140762 67 67 67
97.000000 -78.000000 194.976791 61 61 61
98.000000 -78.000000 196.040298 57 57 57
99.000000 -78.000000 196.749298 52 52 52
100.000000 -78.000000 197.458313 47 47 47
101.000000 -78.000000 198.521820 41 41 41
102.000000 -78.000000 198.521820 36 36 36
103.000000 -78.000000 197.458313 31 31 31
104.000000 -78.000000 196.749298 27 27 27
105.000000 -78.000000 196.749298 24 24 24
106.000000 -78.000000 196.749298 22 22 22
107.000000 -78.000000 196.749298 22 22 22
109.000000 -78.000000 193.913269 30 30 30
110.000000 -78.000000 193.558777 36 36 36
116.000000 -78.000000 179.024139 97 97 97
117.000000 -78.000000 180.087646 106 106 106
118.000000 -78.000000 183.632675 116 116 116
119.000000 -78.000000 184.696198 129 129 129
120.000000 -78.000000 183.278183 138 138 138
121.000000 -78.000000 184.696198 143 143 143
122.000000 -78.000000 185.759705 146 146 146
123.000000 -78.000000 186.114197 147 147 147
126.000000 -78.000000 139.674271 151 151 151
128.000000 -78.000000 138.965271 146 146 146
135.000000 -78.000000 123.367126 137 137 137
136.000000 -78.000000 125.494148 135 135 135
137.000000 -78.000000 127.621170 132 132 132
138.000000 -78.000000 131.520706 128 128 128
139.000000 -78.000000 134.002228 122 122 122
140.000000 -78.000000 134.711227 115 115 115
141.000000 -78.000000 135.065735 104 104 104
142.000000 -78.000000 136.129242 95 95 95
143.000000 -78.000000 137.901764 90 90 90
144.000000 -78.000000 138.965271 86 86 86
145.000000 -78.000000 140.028778 86 86 86
146.000000 -78.000000 140.737793 90 90 90
147.000000 -78.000000 141.446793 96 96 96
148.000000 -78.000000 142.510300 99 99 99
149.000000 -78.000000 143.219315 100 100 100
154.000000 -78.000000 0.000000 92 92 92
75.000000 -79.000000 154.208908 79 79 79
76.000000 -79.000000 155.272415 78 78 78
77.000000 -79.000000 156.690430 78 78 78
78.000000 -79.000000 160.944473 80 80 80
79.000000 -79.000000 163.425995 83 83 83
80.000000 -79.000000 165.907516 87 87 87
81.000000 -79.000000 167.680038 93 93 93
82.000000 -79.000000 169.807053 100 100 100
83.000000 -79.000000 169.807053 108 108 108
84.000000 -79.000000 171.225067 113 113 113
85.000000 -79.000000 172.643082 114 114 114
86.000000 -79.000000 174.061096 115 115 115
87.000000 -79.000000 176.542618 116 116 116
88.000000 -79.000000 178.315125 116 116 116
89.000000 -79.000000 179.733139 116 116 116
90.000000 -79.000000 180.796661 117 117 117
91.000000 -79.000000 182.214661 116 116 116
92.000000 -79.000000 183.987183 110 110 110
93.000000 -79.000000 185.050690 95 95 95
94.000000 -79.000000 187.177719 81 81 81
95.000000 -79.000000 189.659241 73 73 73
96.000000 -79.000000 191.077255 70 70 70
97.000000 -79.000000 193.558777 68 68 68
98.000000 -79.000000 195.685791 67 67 67
99.000000 -79.000000 196.040298 66 66 66
100.000000 -79.000000 198.167313 65 65 65
101.000000 -79.000000 201.003342 64 64 64
102.000000 -79.000000 201.003342 63 63 63
103.000000 -79.000000 200.648834 62 62 62
104.000000 -79.000000 200.294327 61 61 61
105.000000 -79.000000 201.357849 60 60 60
106.000000 -79.000000 201.003342 59 59 59
107.000000 -79.000000 201.003342 59 59 59
108.000000 -79.000000 201.357849 63 63 63
115.000000 -79.000000 177.960632 89 89 89
116.000000 -79.000000 178.315125 89 89 89
117.000000 -79.000000 179.024139 92 92 92
118.000000 -79.000000 182.569168 100 100 100
119.000000 -79.000000 183.987183 113 113 113
120.000000 -79.000000 182.923676 128 128 128
121.000000 -79.000000 184.341690 139 139 139
122.000000 -79.000000 185.405197 144 144 144
123.000000 -79.000000 185.759705 147 147 147
126.000000 -79.000000 140.383286 150 150 150
135.000000 -79.000000 123.367126 137 137 137
