ply
		format ascii 1.0
		element vertex 2938
		property float x
		property float y
		property float z
		property uchar red
		property uchar green
		property uchar blue
		end_header
141.000000 -6.000000 92.525345 106 106 106
142.000000 -6.000000 92.879852 108 108 108
143.000000 -6.000000 92.879852 110 110 110
144.000000 -6.000000 93.234352 111 111 111
145.000000 -6.000000 93.234352 109 109 109
146.000000 -6.000000 93.234352 107 107 107
147.000000 -6.000000 93.234352 107 107 107
148.000000 -6.000000 92.879852 102 102 102
149.000000 -6.000000 92.879852 61 61 61
150.000000 -6.000000 93.234352 18 18 18
152.000000 -6.000000 36.868336 12 12 12
153.000000 -6.000000 35.804829 12 12 12
154.000000 -6.000000 35.450325 13 13 13
68.000000 -7.000000 70.191643 54 54 54
69.000000 -7.000000 69.482635 54 54 54
70.000000 -7.000000 69.482635 55 55 55
71.000000 -7.000000 61.683563 56 56 56
73.000000 -7.000000 73.736671 56 56 56
74.000000 -7.000000 79.054222 56 56 56
75.000000 -7.000000 82.244751 56 56 56
76.000000 -7.000000 87.562302 57 57 57
77.000000 -7.000000 87.207802 56 56 56
78.000000 -7.000000 87.207802 58 58 58
81.000000 -7.000000 86.144287 57 57 57
82.000000 -7.000000 84.726273 55 55 55
83.000000 -7.000000 84.017265 47 47 47
84.000000 -7.000000 84.017265 37 37 37
85.000000 -7.000000 83.662766 34 34 34
86.000000 -7.000000 83.308266 32 32 32
87.000000 -7.000000 82.953758 39 39 39
88.000000 -7.000000 82.953758 55 55 55
89.000000 -7.000000 82.953758 63 63 63
90.000000 -7.000000 83.308266 65 65 65
91.000000 -7.000000 79.408730 66 66 66
92.000000 -7.000000 81.535744 68 68 68
93.000000 -7.000000 82.599258 70 70 70
97.000000 -7.000000 87.207802 75 75 75
98.000000 -7.000000 87.207802 77 77 77
99.000000 -7.000000 87.562302 78 78 78
100.000000 -7.000000 87.562302 80 80 80
101.000000 -7.000000 87.207802 82 82 82
102.000000 -7.000000 87.207802 83 83 83
103.000000 -7.000000 87.562302 84 84 84
104.000000 -7.000000 87.562302 86 86 86
105.000000 -7.000000 86.853294 88 88 88
115.000000 -7.000000 310.544830 102 102 102
116.000000 -7.000000 315.153381 103 103 103
132.000000 -7.000000 89.689323 109 109 109
133.000000 -7.000000 90.043823 106 106 106
134.000000 -7.000000 90.398331 105 105 105
135.000000 -7.000000 90.752831 105 105 105
136.000000 -7.000000 90.398331 104 104 104
137.000000 -7.000000 92.170845 103 103 103
138.000000 -7.000000 92.170845 104 104 104
139.000000 -7.000000 92.525345 105 105 105
140.000000 -7.000000 92.170845 105 105 105
141.000000 -7.000000 92.879852 106 106 106
142.000000 -7.000000 92.879852 106 106 106
143.000000 -7.000000 92.879852 107 107 107
144.000000 -7.000000 92.879852 109 109 109
145.000000 -7.000000 92.879852 111 111 111
146.000000 -7.000000 92.879852 110 110 110
147.000000 -7.000000 92.879852 109 109 109
148.000000 -7.000000 92.525345 102 102 102
149.000000 -7.000000 92.170845 59 59 59
150.000000 -7.000000 93.234352 17 17 17
152.000000 -7.000000 36.868336 12 12 12
153.000000 -7.000000 35.450325 12 12 12
154.000000 -7.000000 35.095821 14 14 14
68.000000 -8.000000 70.546143 54 54 54
69.000000 -8.000000 70.546143 54 54 54
70.000000 -8.000000 70.546143 55 55 55
73.000000 -8.000000 73.027672 56 56 56
74.000000 -8.000000 78.699722 56 56 56
75.000000 -8.000000 82.244751 56 56 56
76.000000 -8.000000 87.562302 57 57 57
77.000000 -8.000000 87.562302 57 57 57
78.000000 -8.000000 87.916801 58 58 58
79.000000 -8.000000 88.980316 57 57 57
80.000000 -8.000000 88.980316 57 57 57
81.000000 -8.000000 86.498795 58 58 58
82.000000 -8.000000 85.080780 56 56 56
83.000000 -8.000000 83.662766 54 54 54
84.000000 -8.000000 83.662766 47 47 47
85.000000 -8.000000 83.308266 42 42 42
86.000000 -8.000000 82.953758 45 45 45
87.000000 -8.000000 82.599258 54 54 54
88.000000 -8.000000 82.599258 61 61 61
89.000000 -8.000000 82.599258 64 64 64
90.000000 -8.000000 82.953758 65 65 65
91.000000 -8.000000 79.054222 66 66 66
92.000000 -8.000000 80.826736 68 68 68
93.000000 -8.000000 82.599258 70 70 70
97.000000 -8.000000 87.562302 75 75 75
98.000000 -8.000000 87.562302 77 77 77
99.000000 -8.000000 87.562302 78 78 78
100.000000 -8.000000 87.562302 80 80 80
101.000000 -8.000000 87.207802 82 82 82
102.000000 -8.000000 87.562302 84 84 84
103.000000 -8.000000 87.562302 85 85 85
104.000000 -8.000000 87.562302 86 86 86
105.000000 -8.000000 86.498795 88 88 88
115.000000 -8.000000 310.544830 102 102 102
116.000000 -8.000000 315.153381 103 103 103
117.000000 -8.000000 319.761932 104 104 104
128.000000 -8.000000 19.497679 107 107 107
129.000000 -8.000000 21.979200 109 109 109
132.000000 -8.000000 89.689323 109 109 109
133.000000 -8.000000 89.689323 109 109 109
134.000000 -8.000000 90.398331 108 108 108
135.000000 -8.000000 90.752831 107 107 107
136.000000 -8.000000 90.398331 107 107 107
137.000000 -8.000000 92.170845 107 107 107
138.000000 -8.000000 92.170845 106 106 106
139.000000 -8.000000 92.525345 106 106 106
140.000000 -8.000000 92.525345 105 105 105
141.000000 -8.000000 92.879852 104 104 104
142.000000 -8.000000 92.879852 104 104 104
143.000000 -8.000000 92.525345 104 104 104
144.000000 -8.000000 92.879852 105 105 105
145.000000 -8.000000 92.879852 109 109 109
146.000000 -8.000000 92.525345 111 111 111
147.000000 -8.000000 92.879852 110 110 110
148.000000 -8.000000 92.170845 103 103 103
149.000000 -8.000000 91.816338 57 57 57
150.000000 -8.000000 92.879852 16 16 16
152.000000 -8.000000 36.513836 11 11 11
153.000000 -8.000000 35.450325 11 11 11
154.000000 -8.000000 35.095821 13 13 13
69.000000 -9.000000 71.255150 55 55 55
70.000000 -9.000000 71.255150 55 55 55
73.000000 -9.000000 71.964157 56 56 56
74.000000 -9.000000 78.345215 56 56 56
75.000000 -9.000000 82.244751 56 56 56
76.000000 -9.000000 87.916801 56 56 56
78.000000 -9.000000 88.980316 58 58 58
79.000000 -9.000000 90.398331 58 58 58
82.000000 -9.000000 84.371773 58 58 58
83.000000 -9.000000 82.953758 58 58 58
84.000000 -9.000000 82.599258 57 57 57
85.000000 -9.000000 82.599258 58 58 58
86.000000 -9.000000 82.244751 60 60 60
87.000000 -9.000000 81.890251 63 63 63
88.000000 -9.000000 81.535744 64 64 64
89.000000 -9.000000 81.890251 64 64 64
90.000000 -9.000000 82.244751 65 65 65
91.000000 -9.000000 78.345215 67 67 67
92.000000 -9.000000 80.472237 68 68 68
93.000000 -9.000000 82.244751 70 70 70
97.000000 -9.000000 87.562302 75 75 75
98.000000 -9.000000 87.562302 77 77 77
99.000000 -9.000000 87.562302 78 78 78
100.000000 -9.000000 87.207802 80 80 80
101.000000 -9.000000 87.207802 82 82 82
102.000000 -9.000000 87.562302 85 85 85
103.000000 -9.000000 87.562302 86 86 86
104.000000 -9.000000 87.562302 87 87 87
105.000000 -9.000000 86.498795 88 88 88
106.000000 -9.000000 86.144287 92 92 92
115.000000 -9.000000 310.544830 103 103 103
116.000000 -9.000000 315.153381 104 104 104
117.000000 -9.000000 319.407410 104 104 104
128.000000 -9.000000 19.852182 109 109 109
129.000000 -9.000000 21.624699 110 110 110
130.000000 -9.000000 24.106220 109 109 109
133.000000 -9.000000 90.043823 112 112 112
134.000000 -9.000000 90.398331 112 112 112
135.000000 -9.000000 91.107330 109 109 109
136.000000 -9.000000 90.752831 109 109 109
137.000000 -9.000000 92.170845 108 108 108
138.000000 -9.000000 92.525345 108 108 108
139.000000 -9.000000 92.525345 107 107 107
140.000000 -9.000000 92.525345 106 106 106
141.000000 -9.000000 92.879852 104 104 104
142.000000 -9.000000 92.879852 103 103 103
143.000000 -9.000000 92.525345 102 102 102
144.000000 -9.000000 92.879852 104 104 104
145.000000 -9.000000 92.879852 109 109 109
146.000000 -9.000000 92.525345 110 110 110
147.000000 -9.000000 92.879852 109 109 109
148.000000 -9.000000 92.170845 102 102 102
149.000000 -9.000000 91.816338 55 55 55
150.000000 -9.000000 92.879852 17 17 17
151.000000 -9.000000 35.450325 12 12 12
152.000000 -9.000000 36.513836 12 12 12
153.000000 -9.000000 35.095821 12 12 12
154.000000 -9.000000 35.095821 14 14 14
68.000000 -10.000000 72.318665 54 54 54
69.000000 -10.000000 71.964157 55 55 55
70.000000 -10.000000 71.964157 55 55 55
74.000000 -10.000000 77.636208 57 57 57
75.000000 -10.000000 81.890251 57 57 57
88.000000 -10.000000 79.408730 64 64 64
89.000000 -10.000000 80.472237 64 64 64
91.000000 -10.000000 77.636208 66 66 66
92.000000 -10.000000 79.408730 68 68 68
97.000000 -10.000000 87.562302 76 76 76
98.000000 -10.000000 87.562302 77 77 77
99.000000 -10.000000 87.562302 78 78 78
100.000000 -10.000000 87.207802 80 80 80
101.000000 -10.000000 87.207802 82 82 82
102.000000 -10.000000 87.562302 84 84 84
103.000000 -10.000000 87.562302 86 86 86
104.000000 -10.000000 87.562302 86 86 86
105.000000 -10.000000 86.498795 88 88 88
116.000000 -10.000000 315.153381 104 104 104
117.000000 -10.000000 318.343903 104 104 104
127.000000 -10.000000 19.497679 110 110 110
128.000000 -10.000000 19.852182 110 110 110
129.000000 -10.000000 21.624699 110 110 110
130.000000 -10.000000 24.460724 109 109 109
131.000000 -10.000000 24.106220 109 109 109
134.000000 -10.000000 90.043823 112 112 112
135.000000 -10.000000 90.752831 109 109 109
136.000000 -10.000000 90.752831 109 109 109
137.000000 -10.000000 92.170845 108 108 108
138.000000 -10.000000 92.525345 107 107 107
139.000000 -10.000000 92.525345 106 106 106
140.000000 -10.000000 92.525345 105 105 105
141.000000 -10.000000 92.879852 104 104 104
142.000000 -10.000000 92.525345 102 102 102
143.000000 -10.000000 92.525345 102 102 102
144.000000 -10.000000 92.525345 105 105 105
145.000000 -10.000000 92.525345 108 108 108
146.000000 -10.000000 92.170845 109 109 109
147.000000 -10.000000 92.525345 108 108 108
148.000000 -10.000000 91.816338 99 99 99
149.000000 -10.000000 91.461838 53 53 53
150.000000 -10.000000 92.879852 18 18 18
151.000000 -10.000000 35.450325 14 14 14
152.000000 -10.000000 36.513836 13 13 13
153.000000 -10.000000 35.450325 13 13 13
154.000000 -10.000000 35.095821 15 15 15
68.000000 -11.000000 73.382172 54 54 54
69.000000 -11.000000 71.964157 55 55 55
70.000000 -11.000000 71.964157 56 56 56
74.000000 -11.000000 76.572701 57 57 57
75.000000 -11.000000 79.763229 57 57 57
76.000000 -11.000000 84.371773 57 57 57
98.000000 -11.000000 87.916801 77 77 77
99.000000 -11.000000 87.916801 78 78 78
100.000000 -11.000000 87.562302 80 80 80
101.000000 -11.000000 87.562302 82 82 82
102.000000 -11.000000 87.562302 83 83 83
103.000000 -11.000000 87.916801 85 85 85
104.000000 -11.000000 87.916801 86 86 86
105.000000 -11.000000 86.498795 87 87 87
110.000000 -11.000000 86.498795 99 99 99
116.000000 -11.000000 315.153381 102 102 102
117.000000 -11.000000 316.925903 104 104 104
127.000000 -11.000000 19.497679 110 110 110
128.000000 -11.000000 19.852182 110 110 110
129.000000 -11.000000 21.979200 110 110 110
130.000000 -11.000000 25.169731 109 109 109
135.000000 -11.000000 90.043823 111 111 111
136.000000 -11.000000 90.043823 109 109 109
137.000000 -11.000000 91.107330 107 107 107
138.000000 -11.000000 91.816338 106 106 106
139.000000 -11.000000 91.816338 106 106 106
140.000000 -11.000000 92.170845 104 104 104
141.000000 -11.000000 92.879852 103 103 103
142.000000 -11.000000 92.170845 102 102 102
143.000000 -11.000000 91.461838 102 102 102
144.000000 -11.000000 91.816338 103 103 103
145.000000 -11.000000 91.816338 103 103 103
146.000000 -11.000000 91.107330 102 102 102
147.000000 -11.000000 91.816338 102 102 102
148.000000 -11.000000 91.461838 94 94 94
149.000000 -11.000000 90.752831 50 50 50
150.000000 -11.000000 92.879852 19 19 19
151.000000 -11.000000 35.804829 16 16 16
152.000000 -11.000000 36.513836 15 15 15
153.000000 -11.000000 35.450325 14 14 14
154.000000 -11.000000 35.095821 16 16 16
68.000000 -12.000000 74.091179 53 53 53
69.000000 -12.000000 71.609657 54 54 54
70.000000 -12.000000 71.964157 56 56 56
72.000000 -12.000000 64.874092 55 55 55
73.000000 -12.000000 68.419128 56 56 56
74.000000 -12.000000 74.800186 56 56 56
75.000000 -12.000000 77.636208 56 56 56
79.000000 -12.000000 107.059982 58 58 58
81.000000 -12.000000 113.795540 60 60 60
86.000000 -12.000000 144.637329 62 62 62
98.000000 -12.000000 88.271309 76 76 76
99.000000 -12.000000 88.271309 78 78 78
100.000000 -12.000000 87.916801 80 80 80
101.000000 -12.000000 87.562302 81 81 81
102.000000 -12.000000 87.562302 82 82 82
103.000000 -12.000000 87.916801 83 83 83
104.000000 -12.000000 87.916801 85 85 85
105.000000 -12.000000 86.498795 86 86 86
109.000000 -12.000000 86.144287 97 97 97
110.000000 -12.000000 86.144287 99 99 99
116.000000 -12.000000 314.798889 102 102 102
128.000000 -12.000000 19.852182 109 109 109
129.000000 -12.000000 23.042711 108 108 108
132.000000 -12.000000 57.429527 108 108 108
136.000000 -12.000000 88.980316 108 108 108
137.000000 -12.000000 89.334816 106 106 106
138.000000 -12.000000 90.752831 107 107 107
139.000000 -12.000000 90.752831 105 105 105
140.000000 -12.000000 91.461838 105 105 105
141.000000 -12.000000 92.879852 105 105 105
142.000000 -12.000000 91.461838 103 103 103
143.000000 -12.000000 90.752831 102 102 102
144.000000 -12.000000 90.752831 100 100 100
145.000000 -12.000000 90.752831 98 98 98
146.000000 -12.000000 90.398331 97 97 97
147.000000 -12.000000 91.461838 98 98 98
148.000000 -12.000000 91.461838 90 90 90
149.000000 -12.000000 91.107330 48 48 48
151.000000 -12.000000 36.159332 18 18 18
152.000000 -12.000000 36.513836 17 17 17
153.000000 -12.000000 35.450325 16 16 16
154.000000 -12.000000 35.095821 16 16 16
68.000000 -13.000000 74.445679 53 53 53
69.000000 -13.000000 71.609657 54 54 54
70.000000 -13.000000 71.609657 55 55 55
77.000000 -13.000000 79.054222 58 58 58
80.000000 -13.000000 109.186996 60 60 60
99.000000 -13.000000 88.271309 78 78 78
100.000000 -13.000000 87.562302 80 80 80
101.000000 -13.000000 87.562302 81 81 81
102.000000 -13.000000 87.562302 83 83 83
103.000000 -13.000000 87.562302 84 84 84
104.000000 -13.000000 87.916801 85 85 85
108.000000 -13.000000 86.144287 93 93 93
109.000000 -13.000000 86.144287 97 97 97
110.000000 -13.000000 85.789787 98 98 98
125.000000 -13.000000 18.434168 107 107 107
126.000000 -13.000000 20.206684 107 107 107
127.000000 -13.000000 23.397215 107 107 107
131.000000 -13.000000 54.238995 106 106 106
132.000000 -13.000000 57.784027 107 107 107
136.000000 -13.000000 87.916801 106 106 106
137.000000 -13.000000 88.625809 105 105 105
138.000000 -13.000000 89.334816 105 105 105
139.000000 -13.000000 89.689323 104 104 104
140.000000 -13.000000 91.107330 103 103 103
141.000000 -13.000000 92.525345 103 103 103
142.000000 -13.000000 91.461838 103 103 103
143.000000 -13.000000 90.398331 100 100 100
144.000000 -13.000000 90.398331 97 97 97
145.000000 -13.000000 90.752831 97 97 97
146.000000 -13.000000 90.398331 95 95 95
147.000000 -13.000000 91.816338 93 93 93
148.000000 -13.000000 91.816338 87 87 87
149.000000 -13.000000 91.816338 47 47 47
151.000000 -13.000000 36.513836 19 19 19
152.000000 -13.000000 36.513836 18 18 18
153.000000 -13.000000 35.450325 17 17 17
154.000000 -13.000000 35.095821 17 17 17
69.000000 -14.000000 71.609657 54 54 54
70.000000 -14.000000 71.964157 56 56 56
79.000000 -14.000000 106.350975 60 60 60
80.000000 -14.000000 109.541504 60 60 60
86.000000 -14.000000 144.991821 63 63 63
87.000000 -14.000000 145.346329 64 64 64
92.000000 -14.000000 57.784027 69 69 69
103.000000 -14.000000 87.207802 85 85 85
106.000000 -14.000000 86.144287 91 91 91
107.000000 -14.000000 86.498795 91 91 91
108.000000 -14.000000 86.498795 94 94 94
109.000000 -14.000000 86.498795 96 96 96
110.000000 -14.000000 86.144287 97 97 97
124.000000 -14.000000 15.598143 106 106 106
125.000000 -14.000000 17.725163 106 106 106
127.000000 -14.000000 23.042711 106 106 106
131.000000 -14.000000 54.948002 104 104 104
132.000000 -14.000000 58.138531 104 104 104
133.000000 -14.000000 59.911049 105 105 105
136.000000 -14.000000 87.916801 102 102 102
137.000000 -14.000000 88.271309 101 101 101
138.000000 -14.000000 88.980316 100 100 100
139.000000 -14.000000 89.334816 100 100 100
140.000000 -14.000000 90.398331 100 100 100
141.000000 -14.000000 92.170845 99 99 99
142.000000 -14.000000 90.752831 99 99 99
143.000000 -14.000000 90.043823 96 96 96
144.000000 -14.000000 89.689323 94 94 94
145.000000 -14.000000 90.043823 93 93 93
146.000000 -14.000000 90.043823 90 90 90
147.000000 -14.000000 91.461838 89 89 89
148.000000 -14.000000 91.816338 88 88 88
149.000000 -14.000000 92.170845 48 48 48
151.000000 -14.000000 36.868336 20 20 20
152.000000 -14.000000 36.868336 18 18 18
153.000000 -14.000000 35.804829 18 18 18
154.000000 -14.000000 35.095821 18 18 18
69.000000 -15.000000 71.964157 55 55 55
70.000000 -15.000000 72.318665 55 55 55
79.000000 -15.000000 106.350975 59 59 59
80.000000 -15.000000 108.832497 60 60 60
86.000000 -15.000000 144.991821 63 63 63
87.000000 -15.000000 145.346329 63 63 63
89.000000 -15.000000 54.238995 65 65 65
91.000000 -15.000000 56.720520 66 66 66
101.000000 -15.000000 87.207802 79 79 79
103.000000 -15.000000 87.207802 81 81 81
105.000000 -15.000000 85.789787 82 82 82
106.000000 -15.000000 85.789787 84 84 84
107.000000 -15.000000 86.498795 85 85 85
108.000000 -15.000000 86.853294 87 87 87
109.000000 -15.000000 86.853294 89 89 89
110.000000 -15.000000 86.498795 90 90 90
125.000000 -15.000000 16.307150 89 89 89
131.000000 -15.000000 55.302505 82 82 82
132.000000 -15.000000 57.429527 82 82 82
133.000000 -15.000000 59.202042 82 82 82
136.000000 -15.000000 87.207802 78 78 78
137.000000 -15.000000 87.562302 76 76 76
138.000000 -15.000000 88.271309 77 77 77
139.000000 -15.000000 88.271309 77 77 77
140.000000 -15.000000 88.980316 78 78 78
141.000000 -15.000000 91.461838 77 77 77
142.000000 -15.000000 90.043823 75 75 75
143.000000 -15.000000 89.334816 73 73 73
144.000000 -15.000000 89.334816 72 72 72
145.000000 -15.000000 89.334816 70 70 70
146.000000 -15.000000 89.334816 70 70 70
147.000000 -15.000000 91.461838 71 71 71
148.000000 -15.000000 92.170845 70 70 70
149.000000 -15.000000 92.879852 39 39 39
151.000000 -15.000000 37.222839 22 22 22
152.000000 -15.000000 37.222839 20 20 20
153.000000 -15.000000 35.804829 19 19 19
154.000000 -15.000000 35.450325 19 19 19
69.000000 -16.000000 71.964157 60 60 60
70.000000 -16.000000 72.673164 61 61 61
77.000000 -16.000000 76.218201 63 63 63
98.000000 -16.000000 87.916801 85 85 85
117.000000 -16.000000 4.254039 107 107 107
132.000000 -16.000000 56.366016 107 107 107
133.000000 -16.000000 58.493034 109 109 109
136.000000 -16.000000 86.498795 110 110 110
137.000000 -16.000000 86.498795 109 109 109
138.000000 -16.000000 87.207802 109 109 109
139.000000 -16.000000 87.562302 111 111 111
140.000000 -16.000000 87.916801 114 114 114
141.000000 -16.000000 90.398331 113 113 113
142.000000 -16.000000 89.334816 113 113 113
143.000000 -16.000000 88.271309 112 112 112
144.000000 -16.000000 88.625809 112 112 112
145.000000 -16.000000 88.625809 112 112 112
146.000000 -16.000000 88.980316 112 112 112
147.000000 -16.000000 91.461838 112 112 112
148.000000 -16.000000 92.879852 99 99 99
149.000000 -16.000000 93.588860 47 47 47
150.000000 -16.000000 94.652367 24 24 24
151.000000 -16.000000 37.222839 24 24 24
152.000000 -16.000000 37.577343 21 21 21
154.000000 -16.000000 35.804829 19 19 19
69.000000 -17.000000 71.964157 112 112 112
70.000000 -17.000000 72.318665 113 113 113
132.000000 -17.000000 56.011513 165 165 165
133.000000 -17.000000 57.784027 164 164 164
134.000000 -17.000000 58.847538 163 163 163
136.000000 -17.000000 84.726273 164 164 164
137.000000 -17.000000 84.371773 162 162 162
138.000000 -17.000000 85.435280 160 160 160
139.000000 -17.000000 86.144287 159 159 159
140.000000 -17.000000 87.562302 160 160 160
141.000000 -17.000000 89.334816 159 159 159
142.000000 -17.000000 88.271309 157 157 157
143.000000 -17.000000 87.916801 155 155 155
144.000000 -17.000000 87.916801 154 154 154
145.000000 -17.000000 88.271309 153 153 153
146.000000 -17.000000 88.271309 151 151 151
147.000000 -17.000000 91.816338 147 147 147
148.000000 -17.000000 93.234352 127 127 127
149.000000 -17.000000 93.943359 57 57 57
150.000000 -17.000000 95.006866 27 27 27
151.000000 -17.000000 37.577343 25 25 25
152.000000 -17.000000 37.577343 22 22 22
154.000000 -17.000000 36.159332 19 19 19
69.000000 -18.000000 71.609657 157 157 157
97.000000 -18.000000 87.207802 181 181 181
98.000000 -18.000000 86.144287 182 182 182
130.000000 -18.000000 56.366016 172 172 172
131.000000 -18.000000 56.366016 169 169 169
132.000000 -18.000000 56.366016 168 168 168
133.000000 -18.000000 57.784027 169 169 169
134.000000 -18.000000 58.847538 169 169 169
137.000000 -18.000000 82.953758 166 166 166
138.000000 -18.000000 83.662766 164 164 164
139.000000 -18.000000 84.726273 162 162 162
140.000000 -18.000000 87.207802 161 161 161
141.000000 -18.000000 88.271309 160 160 160
142.000000 -18.000000 87.562302 159 159 159
143.000000 -18.000000 87.207802 156 156 156
144.000000 -18.000000 87.562302 154 154 154
145.000000 -18.000000 87.562302 152 152 152
146.000000 -18.000000 87.916801 149 149 149
147.000000 -18.000000 91.816338 145 145 145
148.000000 -18.000000 93.588860 123 123 123
149.000000 -18.000000 94.297859 56 56 56
150.000000 -18.000000 95.361374 29 29 29
151.000000 -18.000000 37.577343 26 26 26
152.000000 -18.000000 37.931847 23 23 23
75.000000 -19.000000 65.228600 166 166 166
76.000000 -19.000000 69.128136 166 166 166
130.000000 -19.000000 56.011513 169 169 169
131.000000 -19.000000 56.366016 166 166 166
132.000000 -19.000000 57.075024 167 167 167
133.000000 -19.000000 58.138531 167 167 167
138.000000 -19.000000 82.953758 162 162 162
139.000000 -19.000000 84.017265 160 160 160
140.000000 -19.000000 86.144287 160 160 160
141.000000 -19.000000 87.207802 157 157 157
142.000000 -19.000000 86.853294 156 156 156
143.000000 -19.000000 86.853294 154 154 154
144.000000 -19.000000 86.853294 151 151 151
145.000000 -19.000000 87.207802 148 148 148
146.000000 -19.000000 87.916801 145 145 145
147.000000 -19.000000 91.816338 142 142 142
148.000000 -19.000000 93.588860 119 119 119
149.000000 -19.000000 94.297859 55 55 55
150.000000 -19.000000 95.715874 30 30 30
151.000000 -19.000000 37.931847 27 27 27
152.000000 -19.000000 37.931847 24 24 24
153.000000 -19.000000 98.906403 22 22 22
68.000000 -20.000000 68.419128 158 158 158
75.000000 -20.000000 66.646606 166 166 166
76.000000 -20.000000 69.837135 166 166 166
130.000000 -20.000000 56.011513 165 165 165
138.000000 -20.000000 82.599258 158 158 158
139.000000 -20.000000 83.308266 157 157 157
140.000000 -20.000000 83.662766 156 156 156
141.000000 -20.000000 85.080780 155 155 155
142.000000 -20.000000 85.435280 152 152 152
143.000000 -20.000000 85.789787 149 149 149
144.000000 -20.000000 85.789787 146 146 146
145.000000 -20.000000 86.853294 142 142 142
146.000000 -20.000000 87.562302 139 139 139
147.000000 -20.000000 91.816338 136 136 136
148.000000 -20.000000 93.234352 113 113 113
149.000000 -20.000000 93.943359 52 52 52
150.000000 -20.000000 95.715874 30 30 30
151.000000 -20.000000 38.286350 28 28 28
153.000000 -20.000000 98.906403 23 23 23
154.000000 -20.000000 98.551903 20 20 20
70.000000 -21.000000 321.888947 160 160 160
71.000000 -21.000000 320.116425 162 162 162
77.000000 -21.000000 76.572701 166 166 166
78.000000 -21.000000 80.117737 167 167 167
79.000000 -21.000000 83.308266 169 169 169
81.000000 -21.000000 81.890251 169 169 169
82.000000 -21.000000 82.599258 169 169 169
83.000000 -21.000000 82.953758 170 170 170
84.000000 -21.000000 83.308266 171 171 171
85.000000 -21.000000 83.662766 171 171 171
86.000000 -21.000000 83.662766 170 170 170
87.000000 -21.000000 84.371773 172 172 172
88.000000 -21.000000 86.498795 175 175 175
89.000000 -21.000000 87.562302 175 175 175
91.000000 -21.000000 86.144287 175 175 175
92.000000 -21.000000 87.916801 177 177 177
119.000000 -21.000000 0.000000 182 182 182
130.000000 -21.000000 56.720520 164 164 164
137.000000 -21.000000 80.826736 159 159 159
138.000000 -21.000000 81.890251 156 156 156
140.000000 -21.000000 82.244751 153 153 153
141.000000 -21.000000 82.953758 151 151 151
142.000000 -21.000000 83.308266 148 148 148
143.000000 -21.000000 83.308266 145 145 145
144.000000 -21.000000 83.662766 142 142 142
145.000000 -21.000000 85.435280 138 138 138
146.000000 -21.000000 87.207802 134 134 134
147.000000 -21.000000 92.170845 130 130 130
149.000000 -21.000000 93.943359 49 49 49
150.000000 -21.000000 96.070381 30 30 30
151.000000 -21.000000 38.286350 30 30 30
153.000000 -21.000000 98.906403 24 24 24
154.000000 -21.000000 98.906403 21 21 21
70.000000 -22.000000 321.888947 160 160 160
71.000000 -22.000000 320.825439 163 163 163
77.000000 -22.000000 77.990715 166 166 166
78.000000 -22.000000 81.181244 167 167 167
79.000000 -22.000000 83.662766 169 169 169
80.000000 -22.000000 82.599258 170 170 170
81.000000 -22.000000 82.244751 170 170 170
82.000000 -22.000000 82.953758 170 170 170
83.000000 -22.000000 82.953758 170 170 170
84.000000 -22.000000 83.308266 171 171 171
85.000000 -22.000000 83.308266 172 172 172
86.000000 -22.000000 83.308266 171 171 171
87.000000 -22.000000 84.017265 172 172 172
88.000000 -22.000000 85.789787 174 174 174
89.000000 -22.000000 86.498795 175 175 175
90.000000 -22.000000 83.662766 175 175 175
91.000000 -22.000000 85.789787 176 176 176
92.000000 -22.000000 87.562302 177 177 177
93.000000 -22.000000 87.916801 178 178 178
118.000000 -22.000000 0.000000 182 182 182
119.000000 -22.000000 0.000000 181 181 181
140.000000 -22.000000 80.117737 149 149 149
141.000000 -22.000000 81.181244 146 146 146
142.000000 -22.000000 82.244751 143 143 143
143.000000 -22.000000 82.244751 140 140 140
144.000000 -22.000000 82.599258 137 137 137
145.000000 -22.000000 84.726273 133 133 133
146.000000 -22.000000 87.562302 128 128 128
147.000000 -22.000000 93.234352 125 125 125
148.000000 -22.000000 94.652367 103 103 103
149.000000 -22.000000 93.943359 47 47 47
150.000000 -22.000000 96.424881 30 30 30
151.000000 -22.000000 38.640854 31 31 31
152.000000 -22.000000 98.906403 27 27 27
153.000000 -22.000000 98.906403 23 23 23
154.000000 -22.000000 98.906403 21 21 21
70.000000 -23.000000 321.888947 161 161 161
71.000000 -23.000000 321.534454 162 162 162
72.000000 -23.000000 321.534454 162 162 162
76.000000 -23.000000 80.117737 166 166 166
77.000000 -23.000000 79.054222 166 166 166
78.000000 -23.000000 81.535744 167 167 167
79.000000 -23.000000 84.726273 168 168 168
80.000000 -23.000000 83.308266 169 169 169
81.000000 -23.000000 82.953758 169 169 169
82.000000 -23.000000 83.308266 170 170 170
83.000000 -23.000000 83.662766 170 170 170
84.000000 -23.000000 83.662766 170 170 170
85.000000 -23.000000 83.662766 171 171 171
86.000000 -23.000000 83.662766 171 171 171
87.000000 -23.000000 84.371773 172 172 172
88.000000 -23.000000 85.789787 173 173 173
89.000000 -23.000000 86.144287 174 174 174
90.000000 -23.000000 83.662766 176 176 176
91.000000 -23.000000 85.789787 176 176 176
92.000000 -23.000000 87.207802 176 176 176
93.000000 -23.000000 87.562302 177 177 177
94.000000 -23.000000 87.207802 180 180 180
118.000000 -23.000000 0.000000 180 180 180
119.000000 -23.000000 0.000000 179 179 179
134.000000 -23.000000 65.583099 156 156 156
142.000000 -23.000000 80.117737 137 137 137
143.000000 -23.000000 80.826736 134 134 134
144.000000 -23.000000 81.890251 132 132 132
145.000000 -23.000000 84.017265 129 129 129
146.000000 -23.000000 87.916801 125 125 125
147.000000 -23.000000 93.588860 121 121 121
148.000000 -23.000000 98.197395 99 99 99
149.000000 -23.000000 93.943359 46 46 46
150.000000 -23.000000 96.424881 31 31 31
152.000000 -23.000000 98.906403 26 26 26
153.000000 -23.000000 98.906403 23 23 23
154.000000 -23.000000 98.551903 21 21 21
76.000000 -24.000000 81.535744 165 165 165
77.000000 -24.000000 80.826736 166 166 166
78.000000 -24.000000 81.890251 166 166 166
79.000000 -24.000000 85.435280 167 167 167
80.000000 -24.000000 83.662766 168 168 168
81.000000 -24.000000 83.308266 168 168 168
82.000000 -24.000000 83.662766 168 168 168
83.000000 -24.000000 84.017265 169 169 169
84.000000 -24.000000 84.017265 168 168 168
85.000000 -24.000000 84.017265 167 167 167
86.000000 -24.000000 83.662766 168 168 168
87.000000 -24.000000 84.726273 170 170 170
88.000000 -24.000000 85.435280 172 172 172
89.000000 -24.000000 85.789787 173 173 173
90.000000 -24.000000 83.308266 175 175 175
91.000000 -24.000000 85.435280 176 176 176
92.000000 -24.000000 86.853294 177 177 177
93.000000 -24.000000 87.207802 178 178 178
94.000000 -24.000000 86.853294 178 178 178
124.000000 -24.000000 88.271309 164 164 164
125.000000 -24.000000 88.271309 162 162 162
126.000000 -24.000000 88.271309 161 161 161
127.000000 -24.000000 88.625809 158 158 158
134.000000 -24.000000 66.292107 153 153 153
135.000000 -24.000000 67.710121 151 151 151
140.000000 -24.000000 74.445679 140 140 140
143.000000 -24.000000 79.054222 130 130 130
144.000000 -24.000000 81.181244 128 128 128
145.000000 -24.000000 83.662766 126 126 126
146.000000 -24.000000 87.562302 122 122 122
147.000000 -24.000000 93.234352 117 117 117
149.000000 -24.000000 93.588860 45 45 45
150.000000 -24.000000 96.424881 33 33 33
151.000000 -24.000000 98.551903 33 33 33
152.000000 -24.000000 98.551903 26 26 26
153.000000 -24.000000 98.906403 22 22 22
154.000000 -24.000000 98.197395 22 22 22
74.000000 -25.000000 80.117737 164 164 164
76.000000 -25.000000 82.244751 164 164 164
77.000000 -25.000000 81.535744 165 165 165
78.000000 -25.000000 82.244751 165 165 165
79.000000 -25.000000 85.080780 166 166 166
80.000000 -25.000000 84.017265 166 166 166
81.000000 -25.000000 83.662766 167 167 167
82.000000 -25.000000 83.662766 167 167 167
83.000000 -25.000000 84.017265 163 163 163
84.000000 -25.000000 84.371773 148 148 148
85.000000 -25.000000 84.371773 138 138 138
86.000000 -25.000000 84.017265 147 147 147
87.000000 -25.000000 84.726273 163 163 163
88.000000 -25.000000 85.435280 170 170 170
89.000000 -25.000000 85.789787 171 171 171
90.000000 -25.000000 83.662766 173 173 173
91.000000 -25.000000 84.726273 175 175 175
92.000000 -25.000000 86.498795 177 177 177
93.000000 -25.000000 86.498795 178 178 178
94.000000 -25.000000 86.144287 178 178 178
123.000000 -25.000000 87.562302 160 160 160
124.000000 -25.000000 88.271309 154 154 154
125.000000 -25.000000 87.916801 151 151 151
126.000000 -25.000000 88.271309 151 151 151
127.000000 -25.000000 88.625809 153 153 153
128.000000 -25.000000 88.625809 155 155 155
134.000000 -25.000000 65.583099 149 149 149
135.000000 -25.000000 66.292107 147 147 147
136.000000 -25.000000 66.646606 146 146 146
137.000000 -25.000000 66.646606 144 144 144
138.000000 -25.000000 67.355614 142 142 142
139.000000 -25.000000 69.128136 140 140 140
143.000000 -25.000000 77.636208 126 126 126
144.000000 -25.000000 80.826736 124 124 124
145.000000 -25.000000 82.953758 121 121 121
146.000000 -25.000000 86.498795 118 118 118
147.000000 -25.000000 93.234352 114 114 114
149.000000 -25.000000 93.588860 45 45 45
150.000000 -25.000000 96.070381 34 34 34
151.000000 -25.000000 98.197395 33 33 33
152.000000 -25.000000 98.197395 26 26 26
153.000000 -25.000000 98.551903 22 22 22
154.000000 -25.000000 97.488396 22 22 22
74.000000 -26.000000 80.826736 163 163 163
76.000000 -26.000000 82.599258 164 164 164
77.000000 -26.000000 81.890251 165 165 165
78.000000 -26.000000 82.244751 165 165 165
79.000000 -26.000000 84.726273 165 165 165
80.000000 -26.000000 84.017265 166 166 166
81.000000 -26.000000 83.662766 166 166 166
82.000000 -26.000000 83.662766 162 162 162
83.000000 -26.000000 84.017265 131 131 131
84.000000 -26.000000 84.371773 83 83 83
85.000000 -26.000000 84.371773 73 73 73
86.000000 -26.000000 83.662766 98 98 98
87.000000 -26.000000 84.371773 133 133 133
88.000000 -26.000000 85.080780 165 165 165
89.000000 -26.000000 85.435280 171 171 171
90.000000 -26.000000 83.662766 172 172 172
91.000000 -26.000000 84.017265 173 173 173
92.000000 -26.000000 86.144287 176 176 176
93.000000 -26.000000 86.144287 177 177 177
94.000000 -26.000000 85.789787 178 178 178
95.000000 -26.000000 84.371773 179 179 179
117.000000 -26.000000 84.017265 174 174 174
122.000000 -26.000000 87.207802 161 161 161
123.000000 -26.000000 87.562302 147 147 147
124.000000 -26.000000 87.916801 143 143 143
125.000000 -26.000000 87.916801 154 154 154
126.000000 -26.000000 88.271309 142 142 142
127.000000 -26.000000 88.271309 139 139 139
128.000000 -26.000000 88.625809 150 150 150
129.000000 -26.000000 87.207802 150 150 150
130.000000 -26.000000 87.207802 149 149 149
131.000000 -26.000000 87.916801 149 149 149
132.000000 -26.000000 86.144287 148 148 148
138.000000 -26.000000 65.583099 139 139 139
139.000000 -26.000000 67.001114 136 136 136
141.000000 -26.000000 67.710121 129 129 129
143.000000 -26.000000 76.572701 122 122 122
144.000000 -26.000000 79.408730 120 120 120
145.000000 -26.000000 82.599258 116 116 116
146.000000 -26.000000 85.435280 113 113 113
147.000000 -26.000000 93.234352 109 109 109
149.000000 -26.000000 93.234352 44 44 44
150.000000 -26.000000 96.070381 35 35 35
151.000000 -26.000000 97.842896 33 33 33
152.000000 -26.000000 97.842896 26 26 26
153.000000 -26.000000 98.197395 22 22 22
154.000000 -26.000000 96.779388 22 22 22
68.000000 -27.000000 74.445679 155 155 155
69.000000 -27.000000 77.636208 156 156 156
73.000000 -27.000000 76.927200 160 160 160
74.000000 -27.000000 80.826736 161 161 161
75.000000 -27.000000 84.017265 162 162 162
76.000000 -27.000000 82.599258 163 163 163
77.000000 -27.000000 81.890251 164 164 164
78.000000 -27.000000 82.244751 164 164 164
79.000000 -27.000000 84.371773 165 165 165
80.000000 -27.000000 84.017265 166 166 166
81.000000 -27.000000 83.662766 165 165 165
82.000000 -27.000000 83.662766 151 151 151
83.000000 -27.000000 84.017265 86 86 86
84.000000 -27.000000 84.017265 44 44 44
85.000000 -27.000000 84.017265 52 52 52
86.000000 -27.000000 83.662766 78 78 78
87.000000 -27.000000 84.017265 94 94 94
88.000000 -27.000000 84.726273 148 148 148
89.000000 -27.000000 84.726273 170 170 170
90.000000 -27.000000 83.308266 172 172 172
91.000000 -27.000000 83.308266 173 173 173
92.000000 -27.000000 85.435280 175 175 175
93.000000 -27.000000 85.435280 176 176 176
94.000000 -27.000000 84.726273 177 177 177
95.000000 -27.000000 83.662766 178 178 178
117.000000 -27.000000 83.662766 170 170 170
122.000000 -27.000000 87.207802 150 150 150
123.000000 -27.000000 87.207802 130 130 130
124.000000 -27.000000 87.562302 137 137 137
125.000000 -27.000000 87.562302 153 153 153
126.000000 -27.000000 87.916801 136 136 136
127.000000 -27.000000 88.271309 123 123 123
128.000000 -27.000000 88.271309 139 139 139
129.000000 -27.000000 87.207802 147 147 147
130.000000 -27.000000 86.853294 146 146 146
131.000000 -27.000000 87.207802 146 146 146
132.000000 -27.000000 86.144287 145 145 145
134.000000 -27.000000 64.165085 143 143 143
135.000000 -27.000000 64.519592 142 142 142
136.000000 -27.000000 64.165085 141 141 141
137.000000 -27.000000 63.810585 138 138 138
138.000000 -27.000000 64.519592 136 136 136
139.000000 -27.000000 65.937607 133 133 133
142.000000 -27.000000 67.001114 121 121 121
143.000000 -27.000000 73.382172 118 118 118
144.000000 -27.000000 77.636208 116 116 116
145.000000 -27.000000 81.890251 112 112 112
146.000000 -27.000000 85.435280 109 109 109
147.000000 -27.000000 92.879852 105 105 105
149.000000 -27.000000 93.234352 43 43 43
150.000000 -27.000000 95.715874 36 36 36
151.000000 -27.000000 97.488396 33 33 33
152.000000 -27.000000 97.488396 27 27 27
153.000000 -27.000000 97.842896 23 23 23
154.000000 -27.000000 96.070381 21 21 21
68.000000 -28.000000 74.445679 153 153 153
69.000000 -28.000000 77.990715 155 155 155
73.000000 -28.000000 77.281708 159 159 159
74.000000 -28.000000 81.181244 160 160 160
75.000000 -28.000000 83.662766 161 161 161
76.000000 -28.000000 82.953758 162 162 162
77.000000 -28.000000 82.599258 163 163 163
78.000000 -28.000000 82.599258 163 163 163
79.000000 -28.000000 84.726273 164 164 164
80.000000 -28.000000 84.017265 164 164 164
81.000000 -28.000000 83.308266 164 164 164
82.000000 -28.000000 83.662766 143 143 143
83.000000 -28.000000 83.662766 67 67 67
84.000000 -28.000000 84.017265 34 34 34
85.000000 -28.000000 83.662766 39 39 39
86.000000 -28.000000 83.662766 52 52 52
87.000000 -28.000000 83.662766 65 65 65
88.000000 -28.000000 84.017265 130 130 130
89.000000 -28.000000 84.017265 166 166 166
90.000000 -28.000000 82.953758 170 170 170
91.000000 -28.000000 82.953758 173 173 173
92.000000 -28.000000 84.371773 175 175 175
93.000000 -28.000000 84.371773 175 175 175
94.000000 -28.000000 84.017265 176 176 176
97.000000 -28.000000 52.820984 179 179 179
98.000000 -28.000000 52.820984 180 180 180
99.000000 -28.000000 53.175488 181 181 181
101.000000 -28.000000 53.175488 180 180 180
122.000000 -28.000000 87.207802 138 138 138
123.000000 -28.000000 87.207802 116 116 116
124.000000 -28.000000 87.562302 118 118 118
125.000000 -28.000000 87.562302 121 121 121
126.000000 -28.000000 87.916801 116 116 116
127.000000 -28.000000 87.916801 111 111 111
128.000000 -28.000000 88.271309 128 128 128
129.000000 -28.000000 87.207802 143 143 143
130.000000 -28.000000 86.498795 143 143 143
131.000000 -28.000000 86.144287 144 144 144
132.000000 -28.000000 85.435280 143 143 143
134.000000 -28.000000 62.747074 140 140 140
135.000000 -28.000000 63.101578 140 140 140
136.000000 -28.000000 62.392570 138 138 138
137.000000 -28.000000 61.683563 135 135 135
138.000000 -28.000000 63.456081 132 132 132
139.000000 -28.000000 64.874092 129 129 129
140.000000 -28.000000 63.456081 125 125 125
143.000000 -28.000000 71.255150 115 115 115
144.000000 -28.000000 76.927200 112 112 112
145.000000 -28.000000 80.472237 109 109 109
146.000000 -28.000000 85.080780 105 105 105
147.000000 -28.000000 92.170845 101 101 101
149.000000 -28.000000 92.879852 42 42 42
150.000000 -28.000000 95.361374 36 36 36
151.000000 -28.000000 96.424881 34 34 34
152.000000 -28.000000 96.424881 28 28 28
153.000000 -28.000000 97.133888 23 23 23
154.000000 -28.000000 95.006866 20 20 20
68.000000 -29.000000 74.800186 151 151 151
69.000000 -29.000000 77.990715 154 154 154
72.000000 -29.000000 79.763229 157 157 157
73.000000 -29.000000 77.990715 158 158 158
74.000000 -29.000000 81.535744 159 159 159
75.000000 -29.000000 83.662766 161 161 161
76.000000 -29.000000 82.953758 162 162 162
77.000000 -29.000000 82.599258 162 162 162
78.000000 -29.000000 82.953758 162 162 162
79.000000 -29.000000 85.080780 162 162 162
80.000000 -29.000000 84.371773 162 162 162
81.000000 -29.000000 83.308266 162 162 162
82.000000 -29.000000 83.662766 144 144 144
83.000000 -29.000000 83.662766 73 73 73
84.000000 -29.000000 84.017265 32 32 32
85.000000 -29.000000 83.662766 32 32 32
86.000000 -29.000000 83.308266 37 37 37
87.000000 -29.000000 83.662766 58 58 58
88.000000 -29.000000 84.017265 127 127 127
89.000000 -29.000000 83.662766 164 164 164
91.000000 -29.000000 82.599258 171 171 171
92.000000 -29.000000 83.662766 173 173 173
93.000000 -29.000000 83.662766 174 174 174
94.000000 -29.000000 83.662766 176 176 176
97.000000 -29.000000 53.175488 178 178 178
98.000000 -29.000000 53.175488 179 179 179
99.000000 -29.000000 53.175488 179 179 179
123.000000 -29.000000 87.207802 104 104 104
124.000000 -29.000000 87.562302 107 107 107
125.000000 -29.000000 87.562302 107 107 107
126.000000 -29.000000 87.916801 102 102 102
127.000000 -29.000000 87.916801 97 97 97
128.000000 -29.000000 88.271309 120 120 120
129.000000 -29.000000 87.207802 141 141 141
130.000000 -29.000000 86.144287 141 141 141
131.000000 -29.000000 85.080780 141 141 141
132.000000 -29.000000 84.371773 140 140 140
134.000000 -29.000000 61.683563 138 138 138
135.000000 -29.000000 61.683563 137 137 137
136.000000 -29.000000 61.329060 135 135 135
137.000000 -29.000000 60.974560 132 132 132
138.000000 -29.000000 62.392570 129 129 129
139.000000 -29.000000 62.747074 126 126 126
142.000000 -29.000000 63.810585 115 115 115
143.000000 -29.000000 69.482635 111 111 111
144.000000 -29.000000 76.572701 107 107 107
145.000000 -29.000000 79.408730 105 105 105
146.000000 -29.000000 84.726273 102 102 102
147.000000 -29.000000 90.752831 97 97 97
148.000000 -29.000000 93.588860 75 75 75
149.000000 -29.000000 92.879852 42 42 42
150.000000 -29.000000 95.006866 37 37 37
151.000000 -29.000000 96.070381 35 35 35
152.000000 -29.000000 95.715874 29 29 29
153.000000 -29.000000 96.424881 23 23 23
154.000000 -29.000000 94.652367 21 21 21
68.000000 -30.000000 75.863693 151 151 151
69.000000 -30.000000 78.345215 152 152 152
72.000000 -30.000000 80.826736 157 157 157
73.000000 -30.000000 78.699722 158 158 158
74.000000 -30.000000 81.890251 158 158 158
75.000000 -30.000000 83.662766 160 160 160
76.000000 -30.000000 82.953758 161 161 161
77.000000 -30.000000 82.599258 161 161 161
78.000000 -30.000000 82.953758 161 161 161
79.000000 -30.000000 85.080780 161 161 161
80.000000 -30.000000 84.371773 161 161 161
81.000000 -30.000000 83.662766 160 160 160
82.000000 -30.000000 83.662766 149 149 149
83.000000 -30.000000 83.662766 97 97 97
84.000000 -30.000000 83.662766 45 45 45
85.000000 -30.000000 83.662766 35 35 35
86.000000 -30.000000 83.308266 41 41 41
87.000000 -30.000000 83.662766 76 76 76
88.000000 -30.000000 84.017265 139 139 139
89.000000 -30.000000 83.662766 164 164 164
90.000000 -30.000000 82.953758 167 167 167
91.000000 -30.000000 82.599258 169 169 169
92.000000 -30.000000 83.308266 172 172 172
93.000000 -30.000000 83.308266 174 174 174
94.000000 -30.000000 83.308266 175 175 175
105.000000 -30.000000 25.878736 182 182 182
123.000000 -30.000000 87.562302 89 89 89
124.000000 -30.000000 87.562302 85 85 85
125.000000 -30.000000 87.562302 86 86 86
126.000000 -30.000000 87.916801 79 79 79
127.000000 -30.000000 87.916801 84 84 84
128.000000 -30.000000 88.271309 120 120 120
129.000000 -30.000000 87.207802 138 138 138
130.000000 -30.000000 86.144287 139 139 139
131.000000 -30.000000 84.726273 138 138 138
132.000000 -30.000000 84.371773 138 138 138
133.000000 -30.000000 60.620056 136 136 136
134.000000 -30.000000 60.974560 137 137 137
135.000000 -30.000000 60.974560 134 134 134
136.000000 -30.000000 60.974560 132 132 132
137.000000 -30.000000 60.265553 128 128 128
138.000000 -30.000000 61.329060 122 122 122
139.000000 -30.000000 60.620056 121 121 121
142.000000 -30.000000 62.038067 111 111 111
143.000000 -30.000000 68.064621 106 106 106
144.000000 -30.000000 75.863693 104 104 104
145.000000 -30.000000 78.345215 102 102 102
146.000000 -30.000000 84.371773 99 99 99
147.000000 -30.000000 89.689323 94 94 94
148.000000 -30.000000 93.588860 73 73 73
149.000000 -30.000000 92.879852 43 43 43
150.000000 -30.000000 94.652367 38 38 38
151.000000 -30.000000 95.715874 35 35 35
152.000000 -30.000000 95.715874 30 30 30
153.000000 -30.000000 95.715874 25 25 25
154.000000 -30.000000 94.297859 22 22 22
69.000000 -31.000000 79.054222 151 151 151
72.000000 -31.000000 81.181244 157 157 157
73.000000 -31.000000 79.763229 158 158 158
74.000000 -31.000000 81.890251 158 158 158
75.000000 -31.000000 83.662766 159 159 159
76.000000 -31.000000 82.953758 160 160 160
77.000000 -31.000000 82.953758 160 160 160
78.000000 -31.000000 82.953758 160 160 160
79.000000 -31.000000 85.080780 160 160 160
80.000000 -31.000000 84.371773 160 160 160
81.000000 -31.000000 83.662766 159 159 159
82.000000 -31.000000 83.662766 155 155 155
83.000000 -31.000000 83.662766 132 132 132
84.000000 -31.000000 84.017265 89 89 89
85.000000 -31.000000 83.662766 69 69 69
86.000000 -31.000000 83.308266 79 79 79
87.000000 -31.000000 83.662766 119 119 119
88.000000 -31.000000 83.662766 155 155 155
89.000000 -31.000000 83.662766 165 165 165
90.000000 -31.000000 82.953758 167 167 167
91.000000 -31.000000 82.599258 169 169 169
92.000000 -31.000000 82.953758 171 171 171
93.000000 -31.000000 82.953758 173 173 173
94.000000 -31.000000 83.308266 174 174 174
120.000000 -31.000000 87.207802 153 153 153
121.000000 -31.000000 87.562302 149 149 149
122.000000 -31.000000 87.207802 135 135 135
123.000000 -31.000000 87.207802 99 99 99
124.000000 -31.000000 87.562302 72 72 72
125.000000 -31.000000 87.562302 66 66 66
126.000000 -31.000000 87.916801 72 72 72
127.000000 -31.000000 87.916801 98 98 98
128.000000 -31.000000 88.271309 129 129 129
129.000000 -31.000000 87.207802 137 137 137
130.000000 -31.000000 85.789787 137 137 137
131.000000 -31.000000 84.726273 137 137 137
133.000000 -31.000000 59.911049 135 135 135
134.000000 -31.000000 60.265553 134 134 134
135.000000 -31.000000 60.265553 132 132 132
136.000000 -31.000000 60.265553 129 129 129
137.000000 -31.000000 59.556545 126 126 126
138.000000 -31.000000 60.265553 119 119 119
139.000000 -31.000000 59.556545 117 117 117
141.000000 -31.000000 54.948002 112 112 112
142.000000 -31.000000 61.329060 108 108 108
143.000000 -31.000000 67.355614 103 103 103
144.000000 -31.000000 74.800186 100 100 100
145.000000 -31.000000 76.572701 98 98 98
146.000000 -31.000000 84.371773 96 96 96
147.000000 -31.000000 89.689323 90 90 90
148.000000 -31.000000 93.588860 71 71 71
149.000000 -31.000000 92.879852 43 43 43
150.000000 -31.000000 94.652367 38 38 38
151.000000 -31.000000 95.715874 35 35 35
152.000000 -31.000000 95.715874 29 29 29
153.000000 -31.000000 95.715874 25 25 25
154.000000 -31.000000 94.297859 21 21 21
69.000000 -32.000000 79.408730 151 151 151
72.000000 -32.000000 81.535744 156 156 156
73.000000 -32.000000 80.826736 157 157 157
74.000000 -32.000000 81.890251 158 158 158
75.000000 -32.000000 84.017265 159 159 159
76.000000 -32.000000 83.308266 159 159 159
77.000000 -32.000000 83.308266 160 160 160
78.000000 -32.000000 83.308266 160 160 160
79.000000 -32.000000 85.435280 159 159 159
80.000000 -32.000000 84.726273 159 159 159
81.000000 -32.000000 84.017265 158 158 158
82.000000 -32.000000 84.017265 157 157 157
83.000000 -32.000000 84.017265 153 153 153
84.000000 -32.000000 84.017265 141 141 141
85.000000 -32.000000 84.017265 132 132 132
86.000000 -32.000000 83.662766 139 139 139
87.000000 -32.000000 83.662766 154 154 154
88.000000 -32.000000 83.662766 163 163 163
89.000000 -32.000000 83.662766 165 165 165
90.000000 -32.000000 82.953758 167 167 167
91.000000 -32.000000 82.244751 169 169 169
92.000000 -32.000000 82.599258 171 171 171
93.000000 -32.000000 82.599258 172 172 172
94.000000 -32.000000 82.953758 174 174 174
97.000000 -32.000000 51.757473 176 176 176
105.000000 -32.000000 26.587744 180 180 180
121.000000 -32.000000 87.562302 147 147 147
122.000000 -32.000000 87.562302 143 143 143
123.000000 -32.000000 87.562302 130 130 130
124.000000 -32.000000 87.562302 110 110 110
125.000000 -32.000000 87.562302 102 102 102
126.000000 -32.000000 87.916801 111 111 111
127.000000 -32.000000 88.271309 127 127 127
128.000000 -32.000000 88.271309 135 135 135
129.000000 -32.000000 87.207802 136 136 136
130.000000 -32.000000 85.080780 136 136 136
131.000000 -32.000000 84.371773 135 135 135
133.000000 -32.000000 59.556545 133 133 133
134.000000 -32.000000 59.911049 133 133 133
135.000000 -32.000000 59.911049 131 131 131
136.000000 -32.000000 59.911049 128 128 128
137.000000 -32.000000 59.202042 124 124 124
138.000000 -32.000000 59.911049 119 119 119
139.000000 -32.000000 58.847538 116 116 116
141.000000 -32.000000 55.302505 107 107 107
142.000000 -32.000000 61.329060 105 105 105
143.000000 -32.000000 67.355614 100 100 100
144.000000 -32.000000 74.445679 97 97 97
145.000000 -32.000000 76.572701 94 94 94
146.000000 -32.000000 85.080780 91 91 91
147.000000 -32.000000 89.689323 87 87 87
148.000000 -32.000000 93.588860 67 67 67
149.000000 -32.000000 92.879852 42 42 42
150.000000 -32.000000 94.297859 38 38 38
151.000000 -32.000000 95.715874 35 35 35
152.000000 -32.000000 95.715874 28 28 28
153.000000 -32.000000 96.070381 23 23 23
154.000000 -32.000000 94.652367 21 21 21
69.000000 -33.000000 79.408730 151 151 151
72.000000 -33.000000 81.890251 155 155 155
73.000000 -33.000000 80.826736 156 156 156
74.000000 -33.000000 81.890251 157 157 157
75.000000 -33.000000 84.017265 156 156 156
76.000000 -33.000000 83.662766 157 157 157
77.000000 -33.000000 83.662766 158 158 158
78.000000 -33.000000 84.017265 159 159 159
79.000000 -33.000000 85.435280 159 159 159
80.000000 -33.000000 85.080780 158 158 158
81.000000 -33.000000 84.017265 158 158 158
82.000000 -33.000000 84.017265 158 158 158
83.000000 -33.000000 84.017265 158 158 158
84.000000 -33.000000 84.017265 158 158 158
85.000000 -33.000000 84.017265 158 158 158
