ply
		format ascii 1.0
		element vertex 5187
		property float x
		property float y
		property float z
		property uchar red
		property uchar green
		property uchar blue
		end_header
79.000000 -42.000000 163.425995 138 138 138
80.000000 -42.000000 163.071487 139 139 139
81.000000 -42.000000 163.425995 140 140 140
82.000000 -42.000000 163.780502 140 140 140
83.000000 -42.000000 164.134995 138 138 138
84.000000 -42.000000 164.489502 120 120 120
85.000000 -42.000000 164.489502 106 106 106
86.000000 -42.000000 164.134995 104 104 104
87.000000 -42.000000 163.425995 105 105 105
88.000000 -42.000000 163.425995 111 111 111
89.000000 -42.000000 163.071487 118 118 118
90.000000 -42.000000 162.362488 111 111 111
91.000000 -42.000000 162.362488 102 102 102
92.000000 -42.000000 162.007980 109 109 109
93.000000 -42.000000 161.653473 131 131 131
94.000000 -42.000000 160.944473 141 141 141
95.000000 -42.000000 160.235474 141 141 141
96.000000 -42.000000 158.817459 140 140 140
97.000000 -42.000000 158.462952 138 138 138
98.000000 -42.000000 159.880966 137 137 137
99.000000 -42.000000 159.171951 134 134 134
100.000000 -42.000000 157.753937 131 131 131
101.000000 -42.000000 160.944473 128 128 128
102.000000 -42.000000 162.716995 125 125 125
103.000000 -42.000000 162.362488 121 121 121
104.000000 -42.000000 160.944473 116 116 116
105.000000 -42.000000 160.944473 111 111 111
106.000000 -42.000000 160.944473 102 102 102
107.000000 -42.000000 159.880966 87 87 87
108.000000 -42.000000 158.108444 66 66 66
109.000000 -42.000000 158.108444 57 57 57
110.000000 -42.000000 157.753937 62 62 62
111.000000 -42.000000 157.753937 67 67 67
112.000000 -42.000000 157.399445 57 57 57
113.000000 -42.000000 157.044937 44 44 44
114.000000 -42.000000 156.335938 43 43 43
116.000000 -42.000000 106.350975 44 44 44
117.000000 -42.000000 107.768990 46 46 46
118.000000 -42.000000 108.832497 46 46 46
119.000000 -42.000000 108.123489 46 46 46
120.000000 -42.000000 107.059982 46 46 46
121.000000 -42.000000 106.705475 46 46 46
122.000000 -42.000000 108.832497 46 46 46
123.000000 -42.000000 109.541504 45 45 45
124.000000 -42.000000 109.541504 44 44 44
130.000000 -42.000000 103.160446 37 37 37
131.000000 -42.000000 104.578461 31 31 31
133.000000 -42.000000 271.549500 25 25 25
134.000000 -42.000000 271.903992 24 24 24
137.000000 -42.000000 154.563416 61 61 61
140.000000 -42.000000 110.959518 76 76 76
141.000000 -42.000000 113.441040 72 72 72
142.000000 -42.000000 115.922562 69 69 69
144.000000 -42.000000 75.154686 63 63 63
145.000000 -42.000000 75.154686 59 59 59
146.000000 -42.000000 76.572701 54 54 54
147.000000 -42.000000 77.636208 51 51 51
148.000000 -42.000000 77.636208 49 49 49
149.000000 -42.000000 77.281708 47 47 47
150.000000 -42.000000 77.281708 45 45 45
68.000000 -43.000000 147.827850 66 66 66
69.000000 -43.000000 148.536865 82 82 82
70.000000 -43.000000 149.245865 94 94 94
71.000000 -43.000000 149.245865 103 103 103
72.000000 -43.000000 149.245865 110 110 110
73.000000 -43.000000 152.081894 115 115 115
74.000000 -43.000000 155.981430 120 120 120
75.000000 -43.000000 159.171951 124 124 124
76.000000 -43.000000 161.298981 129 129 129
77.000000 -43.000000 162.007980 132 132 132
78.000000 -43.000000 162.362488 134 134 134
79.000000 -43.000000 163.425995 137 137 137
80.000000 -43.000000 163.071487 138 138 138
81.000000 -43.000000 163.425995 139 139 139
82.000000 -43.000000 163.780502 140 140 140
83.000000 -43.000000 164.134995 134 134 134
84.000000 -43.000000 164.489502 116 116 116
85.000000 -43.000000 164.489502 113 113 113
86.000000 -43.000000 164.134995 115 115 115
87.000000 -43.000000 163.425995 112 112 112
88.000000 -43.000000 163.425995 113 113 113
89.000000 -43.000000 163.071487 117 117 117
90.000000 -43.000000 162.362488 109 109 109
91.000000 -43.000000 162.362488 102 102 102
92.000000 -43.000000 162.007980 113 113 113
93.000000 -43.000000 161.653473 134 134 134
94.000000 -43.000000 160.589966 140 140 140
95.000000 -43.000000 159.880966 140 140 140
96.000000 -43.000000 158.817459 139 139 139
97.000000 -43.000000 158.108444 137 137 137
98.000000 -43.000000 159.171951 135 135 135
99.000000 -43.000000 158.108444 133 133 133
100.000000 -43.000000 156.690430 130 130 130
101.000000 -43.000000 157.399445 127 127 127
102.000000 -43.000000 160.589966 123 123 123
103.000000 -43.000000 161.653473 119 119 119
104.000000 -43.000000 160.589966 114 114 114
105.000000 -43.000000 160.589966 109 109 109
106.000000 -43.000000 160.589966 104 104 104
107.000000 -43.000000 158.817459 94 94 94
108.000000 -43.000000 157.753937 79 79 79
109.000000 -43.000000 157.753937 65 65 65
110.000000 -43.000000 157.753937 60 60 60
111.000000 -43.000000 157.753937 59 59 59
112.000000 -43.000000 157.399445 47 47 47
113.000000 -43.000000 157.399445 32 32 32
114.000000 -43.000000 156.335938 30 30 30
116.000000 -43.000000 106.350975 32 32 32
117.000000 -43.000000 107.414482 33 33 33
118.000000 -43.000000 108.832497 33 33 33
119.000000 -43.000000 108.477989 33 33 33
120.000000 -43.000000 107.414482 33 33 33
121.000000 -43.000000 107.059982 32 32 32
122.000000 -43.000000 108.832497 31 31 31
123.000000 -43.000000 109.896004 31 31 31
132.000000 -43.000000 270.840485 28 28 28
133.000000 -43.000000 270.840485 25 25 25
134.000000 -43.000000 270.840485 24 24 24
136.000000 -43.000000 152.081894 37 37 37
137.000000 -43.000000 153.854401 64 64 64
140.000000 -43.000000 110.605011 75 75 75
141.000000 -43.000000 112.732033 71 71 71
142.000000 -43.000000 115.568054 68 68 68
144.000000 -43.000000 77.281708 63 63 63
145.000000 -43.000000 76.927200 58 58 58
146.000000 -43.000000 77.636208 54 54 54
147.000000 -43.000000 78.345215 50 50 50
148.000000 -43.000000 78.345215 47 47 47
149.000000 -43.000000 77.990715 46 46 46
150.000000 -43.000000 78.345215 45 45 45
151.000000 -43.000000 78.345215 44 44 44
68.000000 -44.000000 147.473343 61 61 61
69.000000 -44.000000 148.536865 78 78 78
70.000000 -44.000000 149.245865 92 92 92
71.000000 -44.000000 149.245865 102 102 102
72.000000 -44.000000 149.600372 109 109 109
73.000000 -44.000000 152.436401 114 114 114
74.000000 -44.000000 155.981430 118 118 118
75.000000 -44.000000 159.526459 123 123 123
76.000000 -44.000000 161.298981 127 127 127
77.000000 -44.000000 162.362488 130 130 130
78.000000 -44.000000 162.362488 133 133 133
79.000000 -44.000000 163.780502 136 136 136
80.000000 -44.000000 163.071487 138 138 138
81.000000 -44.000000 163.425995 139 139 139
82.000000 -44.000000 163.780502 139 139 139
83.000000 -44.000000 164.134995 128 128 128
84.000000 -44.000000 164.489502 110 110 110
85.000000 -44.000000 164.489502 109 109 109
86.000000 -44.000000 163.780502 113 113 113
87.000000 -44.000000 163.425995 114 114 114
88.000000 -44.000000 163.425995 115 115 115
89.000000 -44.000000 163.071487 115 115 115
90.000000 -44.000000 162.007980 107 107 107
91.000000 -44.000000 162.007980 103 103 103
92.000000 -44.000000 161.653473 119 119 119
93.000000 -44.000000 161.298981 136 136 136
94.000000 -44.000000 159.880966 140 140 140
95.000000 -44.000000 158.817459 140 140 140
96.000000 -44.000000 157.753937 138 138 138
97.000000 -44.000000 157.399445 136 136 136
98.000000 -44.000000 157.399445 134 134 134
99.000000 -44.000000 156.690430 132 132 132
100.000000 -44.000000 153.499908 129 129 129
101.000000 -44.000000 152.081894 126 126 126
102.000000 -44.000000 155.626923 122 122 122
103.000000 -44.000000 158.817459 118 118 118
104.000000 -44.000000 159.171951 112 112 112
105.000000 -44.000000 160.235474 107 107 107
106.000000 -44.000000 160.235474 102 102 102
107.000000 -44.000000 158.108444 97 97 97
108.000000 -44.000000 158.108444 85 85 85
109.000000 -44.000000 158.108444 69 69 69
110.000000 -44.000000 158.108444 59 59 59
111.000000 -44.000000 158.108444 56 56 56
112.000000 -44.000000 157.753937 47 47 47
113.000000 -44.000000 157.753937 41 41 41
114.000000 -44.000000 156.690430 42 42 42
116.000000 -44.000000 105.996468 45 45 45
117.000000 -44.000000 107.059982 48 48 48
118.000000 -44.000000 108.477989 48 48 48
119.000000 -44.000000 108.477989 48 48 48
120.000000 -44.000000 107.414482 48 48 48
121.000000 -44.000000 107.414482 47 47 47
122.000000 -44.000000 109.186996 46 46 46
123.000000 -44.000000 110.250511 45 45 45
126.000000 -44.000000 308.417816 42 42 42
132.000000 -44.000000 271.194977 27 27 27
133.000000 -44.000000 270.840485 24 24 24
134.000000 -44.000000 270.485962 23 23 23
135.000000 -44.000000 151.727386 26 26 26
136.000000 -44.000000 151.727386 35 35 35
137.000000 -44.000000 153.499908 57 57 57
140.000000 -44.000000 110.959518 73 73 73
141.000000 -44.000000 112.732033 70 70 70
142.000000 -44.000000 115.213554 67 67 67
143.000000 -44.000000 79.763229 64 64 64
144.000000 -44.000000 77.636208 62 62 62
145.000000 -44.000000 77.636208 58 58 58
146.000000 -44.000000 78.345215 54 54 54
147.000000 -44.000000 79.763229 51 51 51
148.000000 -44.000000 79.408730 48 48 48
149.000000 -44.000000 79.408730 46 46 46
150.000000 -44.000000 79.763229 45 45 45
151.000000 -44.000000 79.763229 44 44 44
152.000000 -44.000000 80.117737 42 42 42
68.000000 -45.000000 147.473343 58 58 58
69.000000 -45.000000 148.536865 74 74 74
70.000000 -45.000000 149.600372 90 90 90
71.000000 -45.000000 149.600372 101 101 101
72.000000 -45.000000 150.309372 109 109 109
73.000000 -45.000000 152.790894 113 113 113
74.000000 -45.000000 156.335938 119 119 119
75.000000 -45.000000 159.880966 123 123 123
76.000000 -45.000000 161.653473 126 126 126
77.000000 -45.000000 162.362488 129 129 129
78.000000 -45.000000 162.362488 133 133 133
79.000000 -45.000000 163.780502 136 136 136
80.000000 -45.000000 163.071487 138 138 138
81.000000 -45.000000 163.425995 138 138 138
82.000000 -45.000000 163.780502 137 137 137
83.000000 -45.000000 164.134995 120 120 120
84.000000 -45.000000 164.489502 103 103 103
85.000000 -45.000000 164.134995 104 104 104
86.000000 -45.000000 163.425995 109 109 109
87.000000 -45.000000 163.425995 113 113 113
88.000000 -45.000000 163.425995 114 114 114
89.000000 -45.000000 163.071487 113 113 113
90.000000 -45.000000 162.007980 107 107 107
91.000000 -45.000000 162.007980 105 105 105
92.000000 -45.000000 161.298981 123 123 123
93.000000 -45.000000 160.944473 137 137 137
94.000000 -45.000000 158.817459 140 140 140
95.000000 -45.000000 158.462952 139 139 139
96.000000 -45.000000 157.399445 138 138 138
97.000000 -45.000000 157.044937 136 136 136
98.000000 -45.000000 156.690430 134 134 134
100.000000 -45.000000 149.600372 128 128 128
101.000000 -45.000000 149.245865 125 125 125
102.000000 -45.000000 150.309372 121 121 121
103.000000 -45.000000 154.917923 117 117 117
104.000000 -45.000000 156.690430 112 112 112
105.000000 -45.000000 158.462952 107 107 107
106.000000 -45.000000 159.171951 102 102 102
107.000000 -45.000000 156.690430 97 97 97
108.000000 -45.000000 157.753937 87 87 87
109.000000 -45.000000 158.108444 70 70 70
110.000000 -45.000000 158.462952 59 59 59
111.000000 -45.000000 158.462952 57 57 57
112.000000 -45.000000 158.108444 53 53 53
113.000000 -45.000000 158.462952 51 51 51
114.000000 -45.000000 157.399445 51 51 51
116.000000 -45.000000 105.996468 54 54 54
117.000000 -45.000000 107.059982 56 56 56
118.000000 -45.000000 108.477989 58 58 58
119.000000 -45.000000 108.477989 59 59 59
120.000000 -45.000000 108.123489 59 59 59
121.000000 -45.000000 107.768990 57 57 57
122.000000 -45.000000 109.541504 56 56 56
123.000000 -45.000000 110.959518 55 55 55
126.000000 -45.000000 307.708801 52 52 52
127.000000 -45.000000 310.544830 52 52 52
128.000000 -45.000000 315.507874 51 51 51
133.000000 -45.000000 271.194977 23 23 23
135.000000 -45.000000 151.372879 31 31 31
136.000000 -45.000000 151.372879 42 42 42
137.000000 -45.000000 153.145401 55 55 55
138.000000 -45.000000 154.917923 80 80 80
139.000000 -45.000000 110.959518 80 80 80
140.000000 -45.000000 110.959518 73 73 73
141.000000 -45.000000 112.732033 69 69 69
142.000000 -45.000000 115.213554 67 67 67
143.000000 -45.000000 80.117737 64 64 64
144.000000 -45.000000 77.636208 61 61 61
145.000000 -45.000000 77.990715 56 56 56
146.000000 -45.000000 79.408730 52 52 52
147.000000 -45.000000 80.472237 49 49 49
148.000000 -45.000000 80.472237 47 47 47
149.000000 -45.000000 80.472237 45 45 45
150.000000 -45.000000 80.472237 44 44 44
151.000000 -45.000000 80.472237 43 43 43
152.000000 -45.000000 80.472237 41 41 41
68.000000 -46.000000 148.182358 60 60 60
69.000000 -46.000000 149.245865 71 71 71
70.000000 -46.000000 149.954880 87 87 87
71.000000 -46.000000 149.954880 99 99 99
72.000000 -46.000000 150.663879 107 107 107
73.000000 -46.000000 153.499908 113 113 113
74.000000 -46.000000 156.335938 118 118 118
75.000000 -46.000000 160.235474 123 123 123
76.000000 -46.000000 161.298981 126 126 126
77.000000 -46.000000 162.007980 129 129 129
78.000000 -46.000000 162.362488 132 132 132
79.000000 -46.000000 163.780502 135 135 135
80.000000 -46.000000 163.071487 137 137 137
81.000000 -46.000000 163.425995 138 138 138
82.000000 -46.000000 163.780502 135 135 135
83.000000 -46.000000 164.134995 112 112 112
84.000000 -46.000000 164.134995 99 99 99
85.000000 -46.000000 163.780502 102 102 102
86.000000 -46.000000 163.425995 106 106 106
87.000000 -46.000000 163.071487 110 110 110
88.000000 -46.000000 163.425995 115 115 115
89.000000 -46.000000 163.071487 120 120 120
90.000000 -46.000000 162.007980 121 121 121
91.000000 -46.000000 161.653473 112 112 112
92.000000 -46.000000 161.298981 127 127 127
93.000000 -46.000000 160.589966 138 138 138
94.000000 -46.000000 158.108444 140 140 140
95.000000 -46.000000 158.462952 139 139 139
96.000000 -46.000000 157.044937 137 137 137
97.000000 -46.000000 157.044937 136 136 136
98.000000 -46.000000 156.335938 133 133 133
99.000000 -46.000000 147.118851 130 130 130
100.000000 -46.000000 145.346329 127 127 127
101.000000 -46.000000 146.409836 124 124 124
102.000000 -46.000000 148.536865 120 120 120
103.000000 -46.000000 149.954880 116 116 116
104.000000 -46.000000 152.081894 112 112 112
105.000000 -46.000000 156.690430 107 107 107
106.000000 -46.000000 157.044937 103 103 103
107.000000 -46.000000 155.626923 97 97 97
108.000000 -46.000000 157.044937 86 86 86
109.000000 -46.000000 157.399445 68 68 68
110.000000 -46.000000 157.753937 59 59 59
111.000000 -46.000000 158.108444 57 57 57
112.000000 -46.000000 158.462952 56 56 56
113.000000 -46.000000 158.817459 55 55 55
114.000000 -46.000000 157.753937 54 54 54
116.000000 -46.000000 105.996468 55 55 55
117.000000 -46.000000 107.059982 57 57 57
118.000000 -46.000000 108.477989 59 59 59
119.000000 -46.000000 108.832497 61 61 61
120.000000 -46.000000 108.832497 62 62 62
121.000000 -46.000000 108.832497 61 61 61
122.000000 -46.000000 109.541504 59 59 59
123.000000 -46.000000 112.023026 58 58 58
125.000000 -46.000000 305.581787 56 56 56
126.000000 -46.000000 309.126831 55 55 55
127.000000 -46.000000 312.317352 55 55 55
128.000000 -46.000000 316.216888 54 54 54
132.000000 -46.000000 271.903992 27 27 27
133.000000 -46.000000 271.549500 24 24 24
135.000000 -46.000000 151.018387 30 30 30
136.000000 -46.000000 151.372879 39 39 39
137.000000 -46.000000 152.790894 54 54 54
138.000000 -46.000000 154.563416 80 80 80
140.000000 -46.000000 110.959518 70 70 70
141.000000 -46.000000 112.732033 66 66 66
142.000000 -46.000000 115.213554 63 63 63
143.000000 -46.000000 80.472237 59 59 59
144.000000 -46.000000 77.990715 56 56 56
145.000000 -46.000000 78.345215 52 52 52
146.000000 -46.000000 79.763229 48 48 48
147.000000 -46.000000 81.181244 45 45 45
148.000000 -46.000000 80.826736 43 43 43
149.000000 -46.000000 80.826736 42 42 42
150.000000 -46.000000 80.826736 41 41 41
151.000000 -46.000000 80.826736 40 40 40
152.000000 -46.000000 80.472237 39 39 39
68.000000 -47.000000 149.600372 68 68 68
69.000000 -47.000000 149.954880 71 71 71
70.000000 -47.000000 150.309372 84 84 84
71.000000 -47.000000 150.309372 97 97 97
72.000000 -47.000000 150.663879 106 106 106
73.000000 -47.000000 153.854401 112 112 112
74.000000 -47.000000 156.690430 117 117 117
75.000000 -47.000000 160.235474 122 122 122
76.000000 -47.000000 160.944473 126 126 126
77.000000 -47.000000 161.653473 129 129 129
78.000000 -47.000000 162.007980 131 131 131
79.000000 -47.000000 163.780502 134 134 134
80.000000 -47.000000 163.071487 137 137 137
81.000000 -47.000000 163.071487 138 138 138
82.000000 -47.000000 163.425995 131 131 131
83.000000 -47.000000 163.780502 104 104 104
84.000000 -47.000000 163.780502 95 95 95
85.000000 -47.000000 163.425995 100 100 100
86.000000 -47.000000 163.071487 104 104 104
87.000000 -47.000000 163.071487 108 108 108
88.000000 -47.000000 163.071487 113 113 113
89.000000 -47.000000 162.716995 119 119 119
90.000000 -47.000000 161.653473 123 123 123
91.000000 -47.000000 161.653473 116 116 116
92.000000 -47.000000 160.944473 130 130 130
93.000000 -47.000000 159.880966 139 139 139
94.000000 -47.000000 157.753937 140 140 140
95.000000 -47.000000 158.108444 138 138 138
96.000000 -47.000000 157.044937 136 136 136
97.000000 -47.000000 157.044937 135 135 135
99.000000 -47.000000 146.055344 130 130 130
100.000000 -47.000000 144.991821 127 127 127
101.000000 -47.000000 144.991821 123 123 123
102.000000 -47.000000 146.055344 120 120 120
103.000000 -47.000000 146.055344 116 116 116
104.000000 -47.000000 146.764343 111 111 111
105.000000 -47.000000 149.954880 107 107 107
106.000000 -47.000000 148.891357 103 103 103
107.000000 -47.000000 151.727386 96 96 96
108.000000 -47.000000 156.335938 83 83 83
109.000000 -47.000000 157.044937 65 65 65
110.000000 -47.000000 157.753937 58 58 58
111.000000 -47.000000 158.462952 56 56 56
112.000000 -47.000000 159.171951 56 56 56
116.000000 -47.000000 105.996468 55 55 55
117.000000 -47.000000 107.414482 57 57 57
118.000000 -47.000000 108.832497 59 59 59
119.000000 -47.000000 109.186996 61 61 61
120.000000 -47.000000 109.186996 62 62 62
121.000000 -47.000000 109.186996 62 62 62
122.000000 -47.000000 109.896004 61 61 61
123.000000 -47.000000 112.732033 60 60 60
125.000000 -47.000000 307.708801 57 57 57
128.000000 -47.000000 317.280396 55 55 55
132.000000 -47.000000 271.194977 27 27 27
133.000000 -47.000000 271.194977 24 24 24
135.000000 -47.000000 151.018387 26 26 26
136.000000 -47.000000 151.018387 31 31 31
137.000000 -47.000000 152.436401 53 53 53
138.000000 -47.000000 154.208908 80 80 80
140.000000 -47.000000 110.959518 54 54 54
141.000000 -47.000000 112.732033 46 46 46
142.000000 -47.000000 115.213554 44 44 44
143.000000 -47.000000 79.763229 41 41 41
144.000000 -47.000000 77.636208 38 38 38
145.000000 -47.000000 77.990715 35 35 35
146.000000 -47.000000 79.763229 33 33 33
147.000000 -47.000000 81.181244 30 30 30
148.000000 -47.000000 80.826736 29 29 29
149.000000 -47.000000 80.826736 28 28 28
150.000000 -47.000000 81.181244 28 28 28
151.000000 -47.000000 81.181244 27 27 27
152.000000 -47.000000 80.826736 26 26 26
68.000000 -48.000000 149.954880 72 72 72
69.000000 -48.000000 150.309372 72 72 72
70.000000 -48.000000 150.663879 81 81 81
71.000000 -48.000000 150.663879 94 94 94
72.000000 -48.000000 151.018387 104 104 104
73.000000 -48.000000 153.854401 110 110 110
74.000000 -48.000000 156.690430 116 116 116
75.000000 -48.000000 159.880966 122 122 122
76.000000 -48.000000 160.589966 126 126 126
77.000000 -48.000000 161.298981 129 129 129
78.000000 -48.000000 162.007980 132 132 132
79.000000 -48.000000 163.425995 134 134 134
80.000000 -48.000000 162.716995 136 136 136
81.000000 -48.000000 163.071487 137 137 137
82.000000 -48.000000 163.071487 126 126 126
83.000000 -48.000000 163.425995 97 97 97
84.000000 -48.000000 163.425995 91 91 91
85.000000 -48.000000 163.071487 95 95 95
86.000000 -48.000000 162.716995 100 100 100
87.000000 -48.000000 162.716995 104 104 104
88.000000 -48.000000 162.716995 106 106 106
89.000000 -48.000000 162.362488 107 107 107
90.000000 -48.000000 161.298981 109 109 109
91.000000 -48.000000 161.298981 118 118 118
92.000000 -48.000000 160.589966 132 132 132
93.000000 -48.000000 159.171951 139 139 139
94.000000 -48.000000 157.044937 139 139 139
95.000000 -48.000000 157.753937 138 138 138
96.000000 -48.000000 157.044937 136 136 136
97.000000 -48.000000 157.044937 134 134 134
99.000000 -48.000000 148.182358 129 129 129
100.000000 -48.000000 145.346329 125 125 125
101.000000 -48.000000 145.700836 122 122 122
102.000000 -48.000000 145.346329 119 119 119
103.000000 -48.000000 144.991821 116 116 116
104.000000 -48.000000 144.637329 111 111 111
105.000000 -48.000000 144.991821 107 107 107
106.000000 -48.000000 147.118851 103 103 103
107.000000 -48.000000 149.954880 95 95 95
108.000000 -48.000000 151.727386 80 80 80
109.000000 -48.000000 155.272415 63 63 63
116.000000 -48.000000 106.350975 54 54 54
117.000000 -48.000000 107.059982 55 55 55
118.000000 -48.000000 108.477989 57 57 57
119.000000 -48.000000 109.186996 60 60 60
120.000000 -48.000000 109.541504 62 62 62
121.000000 -48.000000 109.541504 62 62 62
122.000000 -48.000000 109.896004 61 61 61
123.000000 -48.000000 113.086533 60 60 60
130.000000 -48.000000 272.613007 34 34 34
131.000000 -48.000000 271.549500 29 29 29
132.000000 -48.000000 270.840485 25 25 25
133.000000 -48.000000 270.840485 23 23 23
134.000000 -48.000000 270.485962 22 22 22
135.000000 -48.000000 150.663879 25 25 25
136.000000 -48.000000 150.663879 30 30 30
137.000000 -48.000000 152.081894 52 52 52
138.000000 -48.000000 154.208908 80 80 80
140.000000 -48.000000 110.959518 55 55 55
141.000000 -48.000000 112.732033 46 46 46
142.000000 -48.000000 115.213554 42 42 42
143.000000 -48.000000 78.345215 39 39 39
144.000000 -48.000000 77.281708 36 36 36
145.000000 -48.000000 77.636208 32 32 32
146.000000 -48.000000 79.054222 28 28 28
147.000000 -48.000000 81.181244 25 25 25
148.000000 -48.000000 80.472237 23 23 23
149.000000 -48.000000 80.472237 22 22 22
150.000000 -48.000000 80.826736 21 21 21
151.000000 -48.000000 80.826736 20 20 20
152.000000 -48.000000 80.472237 19 19 19
69.000000 -49.000000 150.309372 73 73 73
70.000000 -49.000000 150.663879 79 79 79
71.000000 -49.000000 150.309372 92 92 92
72.000000 -49.000000 150.663879 101 101 101
73.000000 -49.000000 153.499908 108 108 108
74.000000 -49.000000 156.335938 115 115 115
75.000000 -49.000000 159.526459 121 121 121
76.000000 -49.000000 159.880966 125 125 125
77.000000 -49.000000 160.944473 129 129 129
78.000000 -49.000000 161.653473 131 131 131
79.000000 -49.000000 163.071487 134 134 134
80.000000 -49.000000 162.362488 136 136 136
81.000000 -49.000000 162.716995 136 136 136
82.000000 -49.000000 163.071487 120 120 120
83.000000 -49.000000 163.425995 90 90 90
84.000000 -49.000000 163.071487 88 88 88
85.000000 -49.000000 163.071487 91 91 91
86.000000 -49.000000 162.716995 96 96 96
87.000000 -49.000000 162.716995 99 99 99
88.000000 -49.000000 163.071487 100 100 100
89.000000 -49.000000 162.362488 100 100 100
90.000000 -49.000000 161.298981 106 106 106
91.000000 -49.000000 161.298981 121 121 121
92.000000 -49.000000 160.235474 134 134 134
93.000000 -49.000000 158.817459 139 139 139
94.000000 -49.000000 157.044937 138 138 138
95.000000 -49.000000 157.753937 137 137 137
96.000000 -49.000000 157.044937 136 136 136
97.000000 -49.000000 157.399445 134 134 134
98.000000 -49.000000 156.335938 132 132 132
99.000000 -49.000000 151.372879 129 129 129
100.000000 -49.000000 149.954880 125 125 125
101.000000 -49.000000 150.663879 122 122 122
102.000000 -49.000000 148.536865 118 118 118
103.000000 -49.000000 148.536865 115 115 115
104.000000 -49.000000 149.954880 111 111 111
106.000000 -49.000000 146.409836 103 103 103
107.000000 -49.000000 148.891357 94 94 94
108.000000 -49.000000 149.954880 76 76 76
116.000000 -49.000000 105.996468 53 53 53
117.000000 -49.000000 107.059982 54 54 54
118.000000 -49.000000 108.477989 56 56 56
119.000000 -49.000000 109.186996 59 59 59
120.000000 -49.000000 109.541504 62 62 62
121.000000 -49.000000 109.541504 63 63 63
122.000000 -49.000000 109.896004 62 62 62
123.000000 -49.000000 113.086533 60 60 60
127.000000 -49.000000 4.608542 57 57 57
130.000000 -49.000000 274.031006 35 35 35
131.000000 -49.000000 272.613007 28 28 28
132.000000 -49.000000 271.903992 24 24 24
133.000000 -49.000000 271.549500 22 22 22
134.000000 -49.000000 271.194977 21 21 21
136.000000 -49.000000 150.663879 31 31 31
137.000000 -49.000000 152.081894 54 54 54
140.000000 -49.000000 110.959518 64 64 64
141.000000 -49.000000 112.732033 57 57 57
143.000000 -49.000000 77.281708 49 49 49
144.000000 -49.000000 76.927200 45 45 45
145.000000 -49.000000 76.927200 40 40 40
146.000000 -49.000000 78.345215 36 36 36
147.000000 -49.000000 80.472237 33 33 33
148.000000 -49.000000 79.763229 30 30 30
149.000000 -49.000000 79.763229 29 29 29
150.000000 -49.000000 80.117737 28 28 28
151.000000 -49.000000 80.117737 26 26 26
152.000000 -49.000000 79.763229 25 25 25
154.000000 -49.000000 0.000000 24 24 24
69.000000 -50.000000 149.954880 73 73 73
70.000000 -50.000000 149.954880 78 78 78
71.000000 -50.000000 149.954880 91 91 91
72.000000 -50.000000 150.309372 100 100 100
73.000000 -50.000000 152.790894 107 107 107
74.000000 -50.000000 155.981430 115 115 115
75.000000 -50.000000 158.817459 120 120 120
76.000000 -50.000000 159.171951 124 124 124
77.000000 -50.000000 160.235474 128 128 128
78.000000 -50.000000 161.298981 131 131 131
79.000000 -50.000000 162.716995 134 134 134
80.000000 -50.000000 162.362488 136 136 136
81.000000 -50.000000 162.716995 136 136 136
82.000000 -50.000000 162.716995 121 121 121
83.000000 -50.000000 163.071487 88 88 88
84.000000 -50.000000 162.716995 84 84 84
85.000000 -50.000000 162.716995 88 88 88
87.000000 -50.000000 162.716995 96 96 96
88.000000 -50.000000 162.716995 95 95 95
91.000000 -50.000000 161.298981 122 122 122
92.000000 -50.000000 159.880966 134 134 134
93.000000 -50.000000 158.462952 138 138 138
94.000000 -50.000000 156.690430 138 138 138
95.000000 -50.000000 157.399445 136 136 136
96.000000 -50.000000 157.399445 136 136 136
97.000000 -50.000000 157.399445 134 134 134
98.000000 -50.000000 156.690430 131 131 131
99.000000 -50.000000 154.563416 128 128 128
100.000000 -50.000000 154.563416 125 125 125
101.000000 -50.000000 154.563416 122 122 122
102.000000 -50.000000 152.790894 118 118 118
103.000000 -50.000000 151.727386 114 114 114
104.000000 -50.000000 152.790894 111 111 111
106.000000 -50.000000 145.700836 103 103 103
107.000000 -50.000000 147.118851 92 92 92
108.000000 -50.000000 148.536865 72 72 72
116.000000 -50.000000 105.641968 52 52 52
117.000000 -50.000000 106.705475 52 52 52
118.000000 -50.000000 108.477989 54 54 54
119.000000 -50.000000 109.186996 57 57 57
120.000000 -50.000000 109.541504 60 60 60
121.000000 -50.000000 109.541504 62 62 62
122.000000 -50.000000 109.896004 63 63 63
123.000000 -50.000000 112.732033 62 62 62
126.000000 -50.000000 0.000000 58 58 58
127.000000 -50.000000 4.254039 58 58 58
128.000000 -50.000000 7.090065 58 58 58
130.000000 -50.000000 274.740021 36 36 36
131.000000 -50.000000 274.031006 28 28 28
132.000000 -50.000000 272.967499 25 25 25
133.000000 -50.000000 272.613007 22 22 22
134.000000 -50.000000 272.967499 22 22 22
136.000000 -50.000000 150.309372 37 37 37
137.000000 -50.000000 152.081894 61 61 61
141.000000 -50.000000 112.732033 62 62 62
144.000000 -50.000000 76.218201 49 49 49
145.000000 -50.000000 76.572701 45 45 45
146.000000 -50.000000 77.990715 42 42 42
147.000000 -50.000000 79.054222 38 38 38
148.000000 -50.000000 78.699722 36 36 36
149.000000 -50.000000 79.054222 35 35 35
150.000000 -50.000000 79.054222 34 34 34
151.000000 -50.000000 79.054222 32 32 32
152.000000 -50.000000 79.054222 30 30 30
154.000000 -50.000000 0.000000 29 29 29
69.000000 -51.000000 149.245865 72 72 72
70.000000 -51.000000 149.245865 76 76 76
71.000000 -51.000000 149.245865 88 88 88
72.000000 -51.000000 150.309372 99 99 99
73.000000 -51.000000 152.436401 107 107 107
74.000000 -51.000000 155.981430 114 114 114
75.000000 -51.000000 158.108444 119 119 119
76.000000 -51.000000 158.462952 123 123 123
77.000000 -51.000000 159.880966 127 127 127
78.000000 -51.000000 161.298981 131 131 131
79.000000 -51.000000 162.362488 133 133 133
80.000000 -51.000000 162.007980 136 136 136
81.000000 -51.000000 162.362488 135 135 135
82.000000 -51.000000 162.716995 124 124 124
83.000000 -51.000000 162.716995 93 93 93
84.000000 -51.000000 162.362488 81 81 81
85.000000 -51.000000 162.007980 86 86 86
87.000000 -51.000000 162.362488 94 94 94
90.000000 -51.000000 160.235474 102 102 102
91.000000 -51.000000 160.235474 122 122 122
92.000000 -51.000000 158.817459 133 133 133
93.000000 -51.000000 158.108444 136 136 136
94.000000 -51.000000 156.690430 136 136 136
95.000000 -51.000000 157.399445 135 135 135
96.000000 -51.000000 157.399445 135 135 135
97.000000 -51.000000 157.399445 133 133 133
98.000000 -51.000000 156.690430 130 130 130
99.000000 -51.000000 155.981430 128 128 128
100.000000 -51.000000 156.335938 125 125 125
101.000000 -51.000000 155.626923 122 122 122
102.000000 -51.000000 154.917923 118 118 118
103.000000 -51.000000 153.854401 116 116 116
104.000000 -51.000000 154.563416 113 113 113
106.000000 -51.000000 146.055344 103 103 103
107.000000 -51.000000 146.409836 90 90 90
108.000000 -51.000000 146.409836 69 69 69
109.000000 -51.000000 146.764343 57 57 57
116.000000 -51.000000 105.287460 52 52 52
117.000000 -51.000000 106.350975 52 52 52
118.000000 -51.000000 108.123489 53 53 53
119.000000 -51.000000 109.186996 55 55 55
120.000000 -51.000000 109.541504 59 59 59
121.000000 -51.000000 109.896004 61 61 61
122.000000 -51.000000 109.896004 62 62 62
123.000000 -51.000000 112.023026 62 62 62
126.000000 -51.000000 0.000000 59 59 59
127.000000 -51.000000 3.899536 59 59 59
128.000000 -51.000000 4.254039 57 57 57
129.000000 -51.000000 0.000000 48 48 48
131.000000 -51.000000 274.385498 27 27 27
132.000000 -51.000000 273.676514 25 25 25
133.000000 -51.000000 273.676514 22 22 22
134.000000 -51.000000 274.031006 21 21 21
136.000000 -51.000000 149.954880 34 34 34
138.000000 -51.000000 201.712341 81 81 81
139.000000 -51.000000 204.548370 80 80 80
141.000000 -51.000000 112.732033 65 65 65
143.000000 -51.000000 76.218201 59 59 59
144.000000 -51.000000 75.154686 54 54 54
145.000000 -51.000000 76.218201 50 50 50
146.000000 -51.000000 77.281708 46 46 46
147.000000 -51.000000 78.345215 43 43 43
148.000000 -51.000000 77.990715 40 40 40
149.000000 -51.000000 78.345215 38 38 38
150.000000 -51.000000 78.345215 37 37 37
151.000000 -51.000000 78.345215 36 36 36
152.000000 -51.000000 78.345215 35 35 35
154.000000 -51.000000 0.000000 33 33 33
68.000000 -52.000000 148.182358 70 70 70
69.000000 -52.000000 148.536865 71 71 71
70.000000 -52.000000 148.536865 75 75 75
71.000000 -52.000000 148.891357 86 86 86
72.000000 -52.000000 149.954880 98 98 98
73.000000 -52.000000 152.081894 106 106 106
74.000000 -52.000000 155.626923 113 113 113
75.000000 -52.000000 157.399445 119 119 119
76.000000 -52.000000 158.108444 123 123 123
77.000000 -52.000000 159.526459 127 127 127
78.000000 -52.000000 160.944473 130 130 130
79.000000 -52.000000 161.653473 133 133 133
80.000000 -52.000000 161.653473 135 135 135
81.000000 -52.000000 162.007980 135 135 135
82.000000 -52.000000 162.362488 122 122 122
83.000000 -52.000000 162.362488 96 96 96
84.000000 -52.000000 161.653473 78 78 78
85.000000 -52.000000 161.298981 81 81 81
86.000000 -52.000000 160.944473 88 88 88
87.000000 -52.000000 161.653473 92 92 92
88.000000 -52.000000 161.298981 88 88 88
89.000000 -52.000000 160.589966 84 84 84
90.000000 -52.000000 159.526459 103 103 103
91.000000 -52.000000 159.171951 122 122 122
92.000000 -52.000000 157.753937 132 132 132
93.000000 -52.000000 157.753937 134 134 134
94.000000 -52.000000 157.044937 134 134 134
95.000000 -52.000000 157.399445 133 133 133
96.000000 -52.000000 157.399445 133 133 133
97.000000 -52.000000 157.399445 131 131 131
98.000000 -52.000000 156.690430 129 129 129
99.000000 -52.000000 156.335938 127 127 127
100.000000 -52.000000 156.335938 125 125 125
101.000000 -52.000000 155.626923 122 122 122
102.000000 -52.000000 155.272415 119 119 119
103.000000 -52.000000 154.917923 118 118 118
104.000000 -52.000000 154.917923 115 115 115
106.000000 -52.000000 146.409836 101 101 101
107.000000 -52.000000 146.055344 83 83 83
108.000000 -52.000000 146.055344 62 62 62
109.000000 -52.000000 146.409836 53 53 53
110.000000 -52.000000 145.346329 53 53 53
116.000000 -52.000000 105.287460 51 51 51
117.000000 -52.000000 106.350975 51 51 51
118.000000 -52.000000 107.768990 52 52 52
119.000000 -52.000000 108.832497 54 54 54
120.000000 -52.000000 109.541504 57 57 57
121.000000 -52.000000 109.896004 60 60 60
122.000000 -52.000000 109.896004 61 61 61
123.000000 -52.000000 111.668526 61 61 61
126.000000 -52.000000 0.000000 59 59 59
127.000000 -52.000000 3.545033 58 58 58
128.000000 -52.000000 3.899536 58 58 58
129.000000 -52.000000 0.000000 51 51 51
131.000000 -52.000000 275.094513 27 27 27
132.000000 -52.000000 274.740021 23 23 23
133.000000 -52.000000 274.740021 20 20 20
134.000000 -52.000000 275.094513 20 20 20
138.000000 -52.000000 201.357849 80 80 80
139.000000 -52.000000 202.775848 80 80 80
143.000000 -52.000000 75.863693 61 61 61
144.000000 -52.000000 74.091179 56 56 56
145.000000 -52.000000 75.863693 52 52 52
146.000000 -52.000000 76.927200 48 48 48
147.000000 -52.000000 77.990715 44 44 44
148.000000 -52.000000 77.636208 42 42 42
149.000000 -52.000000 78.345215 41 41 41
150.000000 -52.000000 78.345215 38 38 38
151.000000 -52.000000 78.345215 37 37 37
152.000000 -52.000000 77.990715 36 36 36
154.000000 -52.000000 0.000000 34 34 34
68.000000 -53.000000 147.473343 69 69 69
69.000000 -53.000000 147.827850 70 70 70
70.000000 -53.000000 147.473343 73 73 73
71.000000 -53.000000 148.182358 83 83 83
72.000000 -53.000000 149.600372 96 96 96
73.000000 -53.000000 151.372879 104 104 104
74.000000 -53.000000 155.272415 112 112 112
75.000000 -53.000000 156.690430 118 118 118
76.000000 -53.000000 157.399445 123 123 123
77.000000 -53.000000 159.171951 126 126 126
78.000000 -53.000000 160.589966 130 130 130
79.000000 -53.000000 161.298981 133 133 133
80.000000 -53.000000 161.298981 135 135 135
81.000000 -53.000000 161.653473 134 134 134
82.000000 -53.000000 162.007980 121 121 121
83.000000 -53.000000 162.007980 97 97 97
84.000000 -53.000000 161.298981 76 76 76
85.000000 -53.000000 160.944473 75 75 75
86.000000 -53.000000 160.589966 84 84 84
87.000000 -53.000000 160.944473 90 90 90
88.000000 -53.000000 160.944473 85 85 85
89.000000 -53.000000 160.235474 80 80 80
90.000000 -53.000000 159.171951 100 100 100
91.000000 -53.000000 159.171951 119 119 119
92.000000 -53.000000 157.753937 130 130 130
93.000000 -53.000000 157.753937 133 133 133
94.000000 -53.000000 157.044937 133 133 133
95.000000 -53.000000 157.044937 132 132 132
96.000000 -53.000000 157.399445 130 130 130
97.000000 -53.000000 157.399445 128 128 128
98.000000 -53.000000 156.690430 126 126 126
99.000000 -53.000000 156.690430 124 124 124
100.000000 -53.000000 156.690430 123 123 123
101.000000 -53.000000 155.626923 121 121 121
102.000000 -53.000000 155.272415 120 120 120
103.000000 -53.000000 154.917923 119 119 119
104.000000 -53.000000 155.272415 114 114 114
105.000000 -53.000000 153.854401 104 104 104
106.000000 -53.000000 146.764343 87 87 87
107.000000 -53.000000 145.700836 66 66 66
108.000000 -53.000000 145.700836 54 54 54
109.000000 -53.000000 146.055344 50 50 50
115.000000 -53.000000 102.805939 51 51 51
116.000000 -53.000000 104.932961 51 51 51
117.000000 -53.000000 105.996468 50 50 50
118.000000 -53.000000 107.059982 51 51 51
119.000000 -53.000000 108.477989 53 53 53
120.000000 -53.000000 109.186996 56 56 56
121.000000 -53.000000 109.541504 59 59 59
122.000000 -53.000000 109.896004 60 60 60
123.000000 -53.000000 110.959518 60 60 60
126.000000 -53.000000 0.000000 59 59 59
127.000000 -53.000000 4.254039 58 58 58
128.000000 -53.000000 6.735562 56 56 56
131.000000 -53.000000 275.449036 21 21 21
132.000000 -53.000000 274.740021 17 17 17
133.000000 -53.000000 275.094513 15 15 15
134.000000 -53.000000 275.449036 17 17 17
137.000000 -53.000000 199.585327 51 51 51
138.000000 -53.000000 200.648834 80 80 80
139.000000 -53.000000 201.712341 80 80 80
143.000000 -53.000000 75.509193 62 62 62
144.000000 -53.000000 73.382172 58 58 58
145.000000 -53.000000 75.509193 54 54 54
146.000000 -53.000000 76.927200 49 49 49
147.000000 -53.000000 77.636208 45 45 45
148.000000 -53.000000 77.636208 43 43 43
149.000000 -53.000000 78.345215 41 41 41
150.000000 -53.000000 78.345215 39 39 39
151.000000 -53.000000 78.699722 38 38 38
152.000000 -53.000000 78.345215 37 37 37
154.000000 -53.000000 0.000000 35 35 35
68.000000 -54.000000 147.118851 68 68 68
69.000000 -54.000000 147.118851 68 68 68
70.000000 -54.000000 146.764343 71 71 71
71.000000 -54.000000 147.827850 81 81 81
72.000000 -54.000000 149.600372 94 94 94
73.000000 -54.000000 151.018387 104 104 104
74.000000 -54.000000 154.208908 111 111 111
75.000000 -54.000000 155.981430 117 117 117
76.000000 -54.000000 157.044937 121 121 121
77.000000 -54.000000 158.462952 126 126 126
78.000000 -54.000000 160.235474 130 130 130
79.000000 -54.000000 160.944473 132 132 132
80.000000 -54.000000 160.944473 134 134 134
81.000000 -54.000000 161.298981 133 133 133
82.000000 -54.000000 161.653473 123 123 123
83.000000 -54.000000 161.653473 103 103 103
84.000000 -54.000000 160.944473 79 79 79
85.000000 -54.000000 160.589966 72 72 72
86.000000 -54.000000 160.589966 80 80 80
87.000000 -54.000000 160.944473 88 88 88
88.000000 -54.000000 160.589966 83 83 83
89.000000 -54.000000 160.589966 78 78 78
90.000000 -54.000000 159.880966 90 90 90
91.000000 -54.000000 159.526459 102 102 102
92.000000 -54.000000 158.108444 110 110 110
93.000000 -54.000000 158.108444 114 114 114
94.000000 -54.000000 157.399445 113 113 113
95.000000 -54.000000 157.399445 113 113 113
96.000000 -54.000000 157.399445 109 109 109
97.000000 -54.000000 157.399445 105 105 105
98.000000 -54.000000 157.044937 105 105 105
99.000000 -54.000000 156.690430 106 106 106
100.000000 -54.000000 156.690430 108 108 108
101.000000 -54.000000 155.981430 112 112 112
102.000000 -54.000000 155.272415 114 114 114
103.000000 -54.000000 154.917923 113 113 113
104.000000 -54.000000 154.917923 103 103 103
105.000000 -54.000000 152.436401 83 83 83
106.000000 -54.000000 146.055344 66 66 66
107.000000 -54.000000 145.346329 58 58 58
108.000000 -54.000000 145.346329 51 51 51
109.000000 -54.000000 145.700836 49 49 49
110.000000 -54.000000 144.282822 52 52 52
112.000000 -54.000000 52.111977 54 54 54
113.000000 -54.000000 50.693962 53 53 53
115.000000 -54.000000 101.387924 51 51 51
116.000000 -54.000000 104.223953 50 50 50
117.000000 -54.000000 105.641968 49 49 49
118.000000 -54.000000 106.705475 49 49 49
119.000000 -54.000000 108.123489 52 52 52
120.000000 -54.000000 108.832497 56 56 56
121.000000 -54.000000 109.186996 58 58 58
122.000000 -54.000000 109.896004 60 60 60
123.000000 -54.000000 110.605011 61 61 61
126.000000 -54.000000 0.000000 59 59 59
127.000000 -54.000000 5.317549 58 58 58
132.000000 -54.000000 274.740021 14 14 14
133.000000 -54.000000 275.449036 13 13 13
137.000000 -54.000000 199.585327 51 51 51
138.000000 -54.000000 200.294327 80 80 80
139.000000 -54.000000 201.357849 80 80 80
143.000000 -54.000000 74.800186 63 63 63
144.000000 -54.000000 72.673164 58 58 58
145.000000 -54.000000 75.154686 55 55 55
146.000000 -54.000000 76.572701 51 51 51
147.000000 -54.000000 77.281708 47 47 47
148.000000 -54.000000 77.281708 44 44 44
149.000000 -54.000000 77.990715 42 42 42
150.000000 -54.000000 78.699722 40 40 40
151.000000 -54.000000 78.699722 38 38 38
152.000000 -54.000000 78.345215 38 38 38
154.000000 -54.000000 0.000000 35 35 35
68.000000 -55.000000 146.409836 67 67 67
69.000000 -55.000000 146.409836 68 68 68
70.000000 -55.000000 146.055344 70 70 70
71.000000 -55.000000 147.118851 80 80 80
72.000000 -55.000000 148.891357 93 93 93
73.000000 -55.000000 150.309372 103 103 103
74.000000 -55.000000 152.436401 110 110 110
75.000000 -55.000000 155.272415 116 116 116
76.000000 -55.000000 156.690430 121 121 121
77.000000 -55.000000 157.753937 126 126 126
78.000000 -55.000000 159.526459 129 129 129
79.000000 -55.000000 160.235474 132 132 132
80.000000 -55.000000 160.235474 134 134 134
81.000000 -55.000000 160.944473 134 134 134
82.000000 -55.000000 160.944473 128 128 128
83.000000 -55.000000 160.944473 112 112 112
84.000000 -55.000000 160.589966 90 90 90
85.000000 -55.000000 160.589966 72 72 72
86.000000 -55.000000 160.589966 74 74 74
87.000000 -55.000000 160.944473 84 84 84
88.000000 -55.000000 160.589966 81 81 81
89.000000 -55.000000 160.589966 81 81 81
90.000000 -55.000000 159.880966 91 91 91
91.000000 -55.000000 159.880966 88 88 88
92.000000 -55.000000 158.462952 80 80 80
93.000000 -55.000000 158.817459 76 76 76
94.000000 -55.000000 157.753937 76 76 76
95.000000 -55.000000 157.753937 79 79 79
96.000000 -55.000000 157.399445 82 82 82
97.000000 -55.000000 157.399445 84 84 84
98.000000 -55.000000 157.044937 86 86 86
99.000000 -55.000000 157.044937 89 89 89
100.000000 -55.000000 156.690430 94 94 94
101.000000 -55.000000 155.272415 99 99 99
102.000000 -55.000000 154.208908 101 101 101
103.000000 -55.000000 153.854401 96 96 96
104.000000 -55.000000 153.854401 82 82 82
106.000000 -55.000000 145.346329 77 77 77
107.000000 -55.000000 144.991821 68 68 68
108.000000 -55.000000 144.991821 51 51 51
109.000000 -55.000000 145.346329 48 48 48
112.000000 -55.000000 51.402969 53 53 53
113.000000 -55.000000 50.339462 52 52 52
115.000000 -55.000000 100.678925 51 51 51
116.000000 -55.000000 103.869453 49 49 49
117.000000 -55.000000 105.287460 48 48 48
118.000000 -55.000000 106.350975 48 48 48
119.000000 -55.000000 107.768990 50 50 50
120.000000 -55.000000 108.832497 54 54 54
121.000000 -55.000000 109.186996 57 57 57
122.000000 -55.000000 109.541504 59 59 59
123.000000 -55.000000 110.250511 61 61 61
127.000000 -55.000000 6.381058 58 58 58
132.000000 -55.000000 274.385498 20 20 20
133.000000 -55.000000 275.449036 16 16 16
136.000000 -55.000000 198.876328 26 26 26
137.000000 -55.000000 199.585327 51 51 51
138.000000 -55.000000 200.294327 79 79 79
139.000000 -55.000000 201.003342 80 80 80
143.000000 -55.000000 73.382172 64 64 64
144.000000 -55.000000 71.964157 60 60 60
145.000000 -55.000000 74.445679 56 56 56
146.000000 -55.000000 76.218201 52 52 52
147.000000 -55.000000 76.927200 48 48 48
148.000000 -55.000000 76.927200 45 45 45
149.000000 -55.000000 77.636208 42 42 42
150.000000 -55.000000 77.990715 40 40 40
151.000000 -55.000000 78.345215 39 39 39
152.000000 -55.000000 77.990715 38 38 38
154.000000 -55.000000 0.000000 36 36 36
68.000000 -56.000000 145.700836 64 64 64
69.000000 -56.000000 145.700836 64 64 64
70.000000 -56.000000 145.700836 66 66 66
71.000000 -56.000000 146.409836 78 78 78
72.000000 -56.000000 148.182358 92 92 92
73.000000 -56.000000 149.954880 102 102 102
74.000000 -56.000000 151.372879 109 109 109
75.000000 -56.000000 154.208908 116 116 116
76.000000 -56.000000 156.335938 121 121 121
77.000000 -56.000000 157.399445 125 125 125
78.000000 -56.000000 158.462952 129 129 129
79.000000 -56.000000 159.880966 132 132 132
80.000000 -56.000000 159.526459 133 133 133
81.000000 -56.000000 160.589966 135 135 135
82.000000 -56.000000 160.235474 132 132 132
83.000000 -56.000000 160.589966 122 122 122
84.000000 -56.000000 160.235474 103 103 103
85.000000 -56.000000 160.235474 80 80 80
86.000000 -56.000000 160.235474 70 70 70
87.000000 -56.000000 160.589966 77 77 77
88.000000 -56.000000 160.589966 80 80 80
89.000000 -56.000000 160.589966 85 85 85
90.000000 -56.000000 160.235474 89 89 89
91.000000 -56.000000 159.880966 81 81 81
92.000000 -56.000000 158.817459 74 74 74
93.000000 -56.000000 158.817459 75 75 75
94.000000 -56.000000 157.753937 81 81 81
95.000000 -56.000000 157.399445 87 87 87
96.000000 -56.000000 157.399445 90 90 90
97.000000 -56.000000 157.399445 92 92 92
98.000000 -56.000000 157.044937 95 95 95
99.000000 -56.000000 156.690430 98 98 98
100.000000 -56.000000 156.335938 101 101 101
101.000000 -56.000000 154.563416 101 101 101
102.000000 -56.000000 153.499908 94 94 94
103.000000 -56.000000 152.790894 82 82 82
104.000000 -56.000000 152.790894 83 83 83
105.000000 -56.000000 149.245865 93 93 93
106.000000 -56.000000 144.991821 92 92 92
107.000000 -56.000000 144.991821 70 70 70
108.000000 -56.000000 144.991821 49 49 49
109.000000 -56.000000 144.991821 48 48 48
112.000000 -56.000000 51.402969 53 53 53
113.000000 -56.000000 49.984959 53 53 53
115.000000 -56.000000 100.678925 50 50 50
116.000000 -56.000000 103.514946 48 48 48
117.000000 -56.000000 105.287460 47 47 47
118.000000 -56.000000 106.350975 46 46 46
119.000000 -56.000000 107.768990 49 49 49
120.000000 -56.000000 108.832497 53 53 53
121.000000 -56.000000 109.186996 56 56 56
122.000000 -56.000000 109.541504 58 58 58
123.000000 -56.000000 110.250511 61 61 61
127.000000 -56.000000 7.090065 57 57 57
133.000000 -56.000000 275.803528 22 22 22
136.000000 -56.000000 198.876328 28 28 28
137.000000 -56.000000 199.230820 52 52 52
138.000000 -56.000000 200.294327 79 79 79
139.000000 -56.000000 200.648834 80 80 80
143.000000 -56.000000 72.318665 65 65 65
144.000000 -56.000000 71.255150 61 61 61
145.000000 -56.000000 73.382172 57 57 57
146.000000 -56.000000 75.509193 52 52 52
147.000000 -56.000000 76.572701 48 48 48
148.000000 -56.000000 76.572701 46 46 46
149.000000 -56.000000 77.281708 43 43 43
150.000000 -56.000000 77.636208 40 40 40
151.000000 -56.000000 77.636208 39 39 39
152.000000 -56.000000 77.281708 38 38 38
154.000000 -56.000000 0.000000 36 36 36
68.000000 -57.000000 145.346329 47 47 47
69.000000 -57.000000 145.346329 47 47 47
70.000000 -57.000000 145.346329 53 53 53
71.000000 -57.000000 146.055344 74 74 74
72.000000 -57.000000 147.473343 91 91 91
73.000000 -57.000000 149.245865 101 101 101
74.000000 -57.000000 150.663879 109 109 109
75.000000 -57.000000 152.436401 115 115 115
76.000000 -57.000000 155.626923 121 121 121
77.000000 -57.000000 157.044937 125 125 125
78.000000 -57.000000 158.108444 129 129 129
79.000000 -57.000000 159.171951 132 132 132
80.000000 -57.000000 158.817459 134 134 134
81.000000 -57.000000 159.880966 135 135 135
82.000000 -57.000000 159.526459 134 134 134
83.000000 -57.000000 159.880966 130 130 130
84.000000 -57.000000 159.880966 115 115 115
85.000000 -57.000000 159.880966 94 94 94
86.000000 -57.000000 159.880966 75 75 75
87.000000 -57.000000 160.235474 74 74 74
88.000000 -57.000000 159.880966 85 85 85
89.000000 -57.000000 160.235474 92 92 92
90.000000 -57.000000 159.880966 90 90 90
91.000000 -57.000000 159.880966 84 84 84
92.000000 -57.000000 158.817459 84 84 84
93.000000 -57.000000 158.817459 88 88 88
94.000000 -57.000000 158.108444 95 95 95
95.000000 -57.000000 157.399445 100 100 100
96.000000 -57.000000 157.399445 101 101 101
97.000000 -57.000000 157.399445 102 102 102
98.000000 -57.000000 157.044937 103 103 103
99.000000 -57.000000 156.690430 102 102 102
100.000000 -57.000000 156.335938 100 100 100
101.000000 -57.000000 154.563416 94 94 94
102.000000 -57.000000 153.145401 80 80 80
103.000000 -57.000000 152.436401 78 78 78
104.000000 -57.000000 152.081894 92 92 92
105.000000 -57.000000 148.891357 99 99 99
106.000000 -57.000000 144.991821 91 91 91
107.000000 -57.000000 144.991821 63 63 63
108.000000 -57.000000 144.637329 43 43 43
109.000000 -57.000000 144.637329 42 42 42
112.000000 -57.000000 50.693962 49 49 49
113.000000 -57.000000 49.984959 49 49 49
114.000000 -57.000000 99.260910 49 49 49
115.000000 -57.000000 100.324417 47 47 47
116.000000 -57.000000 103.160446 45 45 45
117.000000 -57.000000 105.287460 44 44 44
118.000000 -57.000000 106.350975 43 43 43
119.000000 -57.000000 107.768990 45 45 45
120.000000 -57.000000 108.832497 50 50 50
121.000000 -57.000000 109.186996 53 53 53
122.000000 -57.000000 109.541504 56 56 56
123.000000 -57.000000 110.250511 58 58 58
127.000000 -57.000000 7.444568 57 57 57
133.000000 -57.000000 275.803528 30 30 30
137.000000 -57.000000 198.876328 57 57 57
138.000000 -57.000000 199.939835 78 78 78
139.000000 -57.000000 200.294327 79 79 79
140.000000 -57.000000 200.648834 73 73 73
144.000000 -57.000000 70.900650 59 59 59
145.000000 -57.000000 72.318665 55 55 55
146.000000 -57.000000 74.800186 51 51 51
147.000000 -57.000000 75.863693 47 47 47
