ply
		format ascii 1.0
		element vertex 3753
		property float x
		property float y
		property float z
		property uchar red
		property uchar green
		property uchar blue
		end_header
127.000000 -36.000000 213.056442 171 171 171
128.000000 -36.000000 215.537979 171 171 171
129.000000 -36.000000 217.664993 170 170 170
130.000000 -36.000000 216.955978 169 169 169
131.000000 -36.000000 217.664993 168 168 168
132.000000 -36.000000 218.728500 168 168 168
133.000000 -36.000000 219.792007 169 169 169
134.000000 -36.000000 220.146515 167 167 167
135.000000 -36.000000 219.792007 165 165 165
136.000000 -36.000000 219.792007 159 159 159
137.000000 -36.000000 219.792007 146 146 146
138.000000 -36.000000 220.146515 143 143 143
139.000000 -36.000000 219.792007 142 142 142
140.000000 -36.000000 219.437515 143 143 143
141.000000 -36.000000 219.792007 151 151 151
143.000000 -36.000000 140.383286 172 172 172
152.000000 -36.000000 114.504547 155 155 155
153.000000 -36.000000 113.795540 153 153 153
68.000000 -37.000000 168.034531 123 123 123
69.000000 -37.000000 168.034531 127 127 127
70.000000 -37.000000 166.616531 129 129 129
71.000000 -37.000000 167.680038 130 130 130
72.000000 -37.000000 168.389038 131 131 131
73.000000 -37.000000 168.389038 132 132 132
81.000000 -37.000000 174.061096 140 140 140
82.000000 -37.000000 174.415604 141 141 141
113.000000 -37.000000 201.712341 169 169 169
114.000000 -37.000000 201.712341 168 168 168
115.000000 -37.000000 201.357849 168 168 168
116.000000 -37.000000 201.712341 168 168 168
117.000000 -37.000000 202.775848 170 170 170
120.000000 -37.000000 204.548370 171 171 171
121.000000 -37.000000 204.193863 170 170 170
125.000000 -37.000000 209.865921 169 169 169
126.000000 -37.000000 210.929428 169 169 169
127.000000 -37.000000 212.701950 170 170 170
128.000000 -37.000000 215.537979 170 170 170
129.000000 -37.000000 217.664993 169 169 169
130.000000 -37.000000 217.310486 169 169 169
131.000000 -37.000000 217.664993 168 168 168
132.000000 -37.000000 219.083008 167 167 167
133.000000 -37.000000 219.792007 167 167 167
134.000000 -37.000000 220.501022 166 166 166
135.000000 -37.000000 219.437515 165 165 165
136.000000 -37.000000 219.083008 160 160 160
137.000000 -37.000000 219.437515 147 147 147
138.000000 -37.000000 219.792007 143 143 143
139.000000 -37.000000 219.437515 142 142 142
140.000000 -37.000000 218.728500 142 142 142
141.000000 -37.000000 218.728500 150 150 150
148.000000 -37.000000 138.610764 162 162 162
152.000000 -37.000000 115.213554 154 154 154
153.000000 -37.000000 115.213554 152 152 152
68.000000 -38.000000 167.680038 123 123 123
69.000000 -38.000000 167.680038 127 127 127
70.000000 -38.000000 166.262024 128 128 128
71.000000 -38.000000 167.680038 129 129 129
72.000000 -38.000000 168.034531 130 130 130
73.000000 -38.000000 167.680038 132 132 132
81.000000 -38.000000 174.061096 140 140 140
88.000000 -38.000000 182.569168 146 146 146
98.000000 -38.000000 215.537979 154 154 154
99.000000 -38.000000 216.246979 153 153 153
101.000000 -38.000000 216.246979 157 157 157
113.000000 -38.000000 201.357849 167 167 167
114.000000 -38.000000 201.357849 167 167 167
115.000000 -38.000000 201.357849 167 167 167
116.000000 -38.000000 201.712341 167 167 167
117.000000 -38.000000 202.421356 169 169 169
120.000000 -38.000000 204.193863 169 169 169
121.000000 -38.000000 204.193863 170 170 170
125.000000 -38.000000 209.865921 169 169 169
126.000000 -38.000000 210.929428 169 169 169
127.000000 -38.000000 212.701950 169 169 169
128.000000 -38.000000 215.537979 170 170 170
130.000000 -38.000000 217.310486 169 169 169
131.000000 -38.000000 217.664993 168 168 168
132.000000 -38.000000 219.437515 166 166 166
133.000000 -38.000000 220.146515 166 166 166
134.000000 -38.000000 220.146515 166 166 166
135.000000 -38.000000 219.083008 165 165 165
136.000000 -38.000000 218.728500 158 158 158
137.000000 -38.000000 219.083008 144 144 144
138.000000 -38.000000 219.083008 141 141 141
139.000000 -38.000000 218.728500 141 141 141
140.000000 -38.000000 218.373993 142 142 142
141.000000 -38.000000 218.373993 149 149 149
142.000000 -38.000000 218.373993 167 167 167
143.000000 -38.000000 215.183472 168 168 168
144.000000 -38.000000 213.765457 167 167 167
145.000000 -38.000000 211.283936 166 166 166
147.000000 -38.000000 137.547256 162 162 162
154.000000 -38.000000 142.510300 150 150 150
68.000000 -39.000000 167.325531 123 123 123
69.000000 -39.000000 167.325531 127 127 127
70.000000 -39.000000 165.553009 128 128 128
71.000000 -39.000000 167.325531 129 129 129
72.000000 -39.000000 167.680038 130 130 130
73.000000 -39.000000 167.325531 131 131 131
88.000000 -39.000000 182.923676 145 145 145
99.000000 -39.000000 215.537979 153 153 153
101.000000 -39.000000 215.537979 156 156 156
104.000000 -39.000000 242.834717 159 159 159
115.000000 -39.000000 201.712341 168 168 168
116.000000 -39.000000 202.066849 167 167 167
117.000000 -39.000000 202.775848 168 168 168
120.000000 -39.000000 203.839371 169 169 169
121.000000 -39.000000 204.193863 168 168 168
122.000000 -39.000000 205.966385 167 167 167
125.000000 -39.000000 209.865921 168 168 168
126.000000 -39.000000 210.929428 168 168 168
127.000000 -39.000000 212.701950 168 168 168
128.000000 -39.000000 215.892471 167 167 167
130.000000 -39.000000 217.310486 168 168 168
131.000000 -39.000000 218.019501 167 167 167
132.000000 -39.000000 219.437515 167 167 167
133.000000 -39.000000 220.146515 165 165 165
134.000000 -39.000000 220.146515 165 165 165
135.000000 -39.000000 218.728500 164 164 164
136.000000 -39.000000 218.728500 156 156 156
137.000000 -39.000000 219.083008 142 142 142
138.000000 -39.000000 219.083008 140 140 140
139.000000 -39.000000 218.728500 140 140 140
140.000000 -39.000000 218.019501 140 140 140
141.000000 -39.000000 218.019501 148 148 148
142.000000 -39.000000 217.664993 165 165 165
143.000000 -39.000000 214.119965 167 167 167
144.000000 -39.000000 213.765457 167 167 167
145.000000 -39.000000 211.992935 165 165 165
150.000000 -39.000000 137.192749 156 156 156
153.000000 -39.000000 143.573807 151 151 151
154.000000 -39.000000 142.155807 149 149 149
68.000000 -40.000000 166.971024 123 123 123
69.000000 -40.000000 166.616531 127 127 127
70.000000 -40.000000 165.198517 127 127 127
71.000000 -40.000000 166.971024 128 128 128
72.000000 -40.000000 167.325531 130 130 130
73.000000 -40.000000 166.971024 131 131 131
99.000000 -40.000000 215.183472 153 153 153
101.000000 -40.000000 215.892471 155 155 155
104.000000 -40.000000 242.480225 157 157 157
105.000000 -40.000000 242.125717 159 159 159
115.000000 -40.000000 202.066849 167 167 167
116.000000 -40.000000 202.066849 168 168 168
117.000000 -40.000000 203.130356 168 168 168
119.000000 -40.000000 204.193863 168 168 168
121.000000 -40.000000 203.839371 167 167 167
131.000000 -40.000000 218.019501 168 168 168
132.000000 -40.000000 219.792007 167 167 167
133.000000 -40.000000 220.146515 165 165 165
134.000000 -40.000000 220.146515 164 164 164
135.000000 -40.000000 218.728500 163 163 163
136.000000 -40.000000 218.728500 155 155 155
137.000000 -40.000000 219.083008 142 142 142
138.000000 -40.000000 219.083008 140 140 140
139.000000 -40.000000 218.728500 140 140 140
140.000000 -40.000000 218.019501 139 139 139
141.000000 -40.000000 218.019501 147 147 147
142.000000 -40.000000 217.310486 162 162 162
143.000000 -40.000000 213.765457 163 163 163
144.000000 -40.000000 213.765457 162 162 162
145.000000 -40.000000 212.347443 161 161 161
149.000000 -40.000000 134.002228 155 155 155
150.000000 -40.000000 137.901764 153 153 153
151.000000 -40.000000 140.383286 152 152 152
152.000000 -40.000000 140.383286 150 150 150
153.000000 -40.000000 143.573807 149 149 149
154.000000 -40.000000 142.510300 147 147 147
68.000000 -41.000000 166.616531 122 122 122
69.000000 -41.000000 166.616531 127 127 127
70.000000 -41.000000 164.844009 127 127 127
71.000000 -41.000000 166.971024 128 128 128
72.000000 -41.000000 166.971024 129 129 129
73.000000 -41.000000 166.971024 131 131 131
99.000000 -41.000000 215.537979 152 152 152
104.000000 -41.000000 242.480225 156 156 156
105.000000 -41.000000 242.125717 158 158 158
115.000000 -41.000000 202.066849 168 168 168
116.000000 -41.000000 202.066849 168 168 168
117.000000 -41.000000 202.775848 168 168 168
118.000000 -41.000000 203.484863 168 168 168
131.000000 -41.000000 218.019501 167 167 167
132.000000 -41.000000 220.146515 166 166 166
133.000000 -41.000000 220.501022 165 165 165
134.000000 -41.000000 220.501022 164 164 164
135.000000 -41.000000 219.083008 163 163 163
136.000000 -41.000000 218.728500 154 154 154
137.000000 -41.000000 219.083008 143 143 143
138.000000 -41.000000 219.083008 140 140 140
139.000000 -41.000000 218.728500 139 139 139
140.000000 -41.000000 218.019501 137 137 137
141.000000 -41.000000 218.019501 131 131 131
142.000000 -41.000000 217.664993 121 121 121
143.000000 -41.000000 214.119965 118 118 118
144.000000 -41.000000 214.119965 118 118 118
145.000000 -41.000000 213.056442 119 119 119
146.000000 -41.000000 213.410950 120 120 120
149.000000 -41.000000 134.711227 122 122 122
150.000000 -41.000000 138.610764 121 121 121
151.000000 -41.000000 140.737793 122 122 122
152.000000 -41.000000 141.092285 123 123 123
153.000000 -41.000000 143.928314 123 123 123
154.000000 -41.000000 142.510300 122 122 122
68.000000 -42.000000 166.616531 122 122 122
69.000000 -42.000000 166.262024 126 126 126
70.000000 -42.000000 164.844009 126 126 126
71.000000 -42.000000 166.616531 127 127 127
72.000000 -42.000000 166.971024 129 129 129
73.000000 -42.000000 166.616531 131 131 131
104.000000 -42.000000 242.480225 155 155 155
117.000000 -42.000000 202.421356 167 167 167
118.000000 -42.000000 203.484863 167 167 167
119.000000 -42.000000 203.484863 167 167 167
120.000000 -42.000000 202.775848 166 166 166
121.000000 -42.000000 203.484863 166 166 166
131.000000 -42.000000 218.373993 164 164 164
132.000000 -42.000000 220.501022 164 164 164
133.000000 -42.000000 220.501022 165 165 165
134.000000 -42.000000 220.501022 164 164 164
135.000000 -42.000000 219.083008 161 161 161
136.000000 -42.000000 218.728500 152 152 152
137.000000 -42.000000 219.083008 141 141 141
138.000000 -42.000000 219.083008 139 139 139
139.000000 -42.000000 218.728500 139 139 139
140.000000 -42.000000 218.019501 137 137 137
141.000000 -42.000000 218.019501 109 109 109
142.000000 -42.000000 217.664993 57 57 57
143.000000 -42.000000 214.474457 44 44 44
144.000000 -42.000000 214.474457 44 44 44
145.000000 -42.000000 213.410950 44 44 44
146.000000 -42.000000 214.474457 45 45 45
149.000000 -42.000000 136.483749 48 48 48
150.000000 -42.000000 138.965271 48 48 48
151.000000 -42.000000 141.801300 48 48 48
152.000000 -42.000000 142.510300 50 50 50
153.000000 -42.000000 144.282822 52 52 52
154.000000 -42.000000 142.864807 52 52 52
68.000000 -43.000000 166.262024 121 121 121
69.000000 -43.000000 165.907516 125 125 125
70.000000 -43.000000 164.489502 126 126 126
71.000000 -43.000000 166.971024 127 127 127
72.000000 -43.000000 166.971024 129 129 129
73.000000 -43.000000 166.971024 131 131 131
117.000000 -43.000000 202.066849 165 165 165
118.000000 -43.000000 203.484863 164 164 164
119.000000 -43.000000 203.484863 165 165 165
120.000000 -43.000000 202.775848 166 166 166
121.000000 -43.000000 203.839371 167 167 167
131.000000 -43.000000 218.019501 163 163 163
132.000000 -43.000000 220.501022 163 163 163
133.000000 -43.000000 220.501022 164 164 164
134.000000 -43.000000 220.501022 162 162 162
135.000000 -43.000000 218.728500 159 159 159
136.000000 -43.000000 218.728500 150 150 150
137.000000 -43.000000 218.728500 139 139 139
138.000000 -43.000000 219.083008 139 139 139
139.000000 -43.000000 218.728500 138 138 138
140.000000 -43.000000 218.019501 136 136 136
141.000000 -43.000000 218.019501 107 107 107
142.000000 -43.000000 217.664993 50 50 50
143.000000 -43.000000 214.828964 36 36 36
144.000000 -43.000000 214.828964 34 34 34
145.000000 -43.000000 213.765457 33 33 33
146.000000 -43.000000 215.537979 34 34 34
149.000000 -43.000000 137.192749 31 31 31
150.000000 -43.000000 139.319778 30 30 30
151.000000 -43.000000 142.864807 29 29 29
153.000000 -43.000000 144.282822 29 29 29
154.000000 -43.000000 142.864807 28 28 28
68.000000 -44.000000 166.262024 121 121 121
69.000000 -44.000000 165.907516 125 125 125
70.000000 -44.000000 164.489502 126 126 126
71.000000 -44.000000 166.971024 127 127 127
72.000000 -44.000000 167.325531 129 129 129
73.000000 -44.000000 166.971024 130 130 130
118.000000 -44.000000 203.839371 163 163 163
119.000000 -44.000000 203.839371 164 164 164
120.000000 -44.000000 203.130356 166 166 166
121.000000 -44.000000 204.548370 166 166 166
131.000000 -44.000000 218.019501 162 162 162
132.000000 -44.000000 220.501022 161 161 161
133.000000 -44.000000 220.501022 162 162 162
134.000000 -44.000000 220.501022 161 161 161
135.000000 -44.000000 218.728500 159 159 159
136.000000 -44.000000 218.728500 150 150 150
137.000000 -44.000000 218.728500 140 140 140
138.000000 -44.000000 219.083008 139 139 139
139.000000 -44.000000 218.728500 138 138 138
140.000000 -44.000000 218.019501 136 136 136
141.000000 -44.000000 218.019501 112 112 112
142.000000 -44.000000 218.019501 68 68 68
143.000000 -44.000000 215.183472 58 58 58
144.000000 -44.000000 215.183472 56 56 56
145.000000 -44.000000 214.474457 55 55 55
146.000000 -44.000000 216.601486 55 55 55
149.000000 -44.000000 137.901764 51 51 51
150.000000 -44.000000 139.319778 49 49 49
68.000000 -45.000000 166.616531 121 121 121
69.000000 -45.000000 166.262024 125 125 125
70.000000 -45.000000 164.844009 126 126 126
71.000000 -45.000000 167.325531 127 127 127
72.000000 -45.000000 167.325531 128 128 128
73.000000 -45.000000 167.325531 130 130 130
118.000000 -45.000000 204.193863 163 163 163
119.000000 -45.000000 204.193863 163 163 163
120.000000 -45.000000 203.839371 165 165 165
121.000000 -45.000000 205.257385 165 165 165
125.000000 -45.000000 210.574921 163 163 163
131.000000 -45.000000 217.664993 161 161 161
132.000000 -45.000000 220.146515 161 161 161
133.000000 -45.000000 220.501022 161 161 161
134.000000 -45.000000 220.146515 160 160 160
135.000000 -45.000000 218.728500 159 159 159
136.000000 -45.000000 218.728500 151 151 151
137.000000 -45.000000 218.728500 140 140 140
138.000000 -45.000000 219.083008 139 139 139
139.000000 -45.000000 218.728500 138 138 138
140.000000 -45.000000 218.019501 135 135 135
141.000000 -45.000000 218.373993 115 115 115
142.000000 -45.000000 218.019501 81 81 81
143.000000 -45.000000 215.537979 73 73 73
144.000000 -45.000000 215.537979 72 72 72
145.000000 -45.000000 214.828964 70 70 70
146.000000 -45.000000 217.310486 70 70 70
147.000000 -45.000000 217.310486 69 69 69
149.000000 -45.000000 138.610764 66 66 66
150.000000 -45.000000 139.674271 66 66 66
68.000000 -46.000000 166.616531 121 121 121
69.000000 -46.000000 166.262024 124 124 124
70.000000 -46.000000 165.198517 126 126 126
71.000000 -46.000000 167.325531 127 127 127
72.000000 -46.000000 167.680038 128 128 128
73.000000 -46.000000 167.325531 129 129 129
96.000000 -46.000000 188.595718 148 148 148
98.000000 -46.000000 190.013733 150 150 150
99.000000 -46.000000 191.077255 150 150 150
100.000000 -46.000000 191.077255 151 151 151
101.000000 -46.000000 191.431747 152 152 152
103.000000 -46.000000 193.204269 154 154 154
114.000000 -46.000000 200.294327 162 162 162
118.000000 -46.000000 203.839371 162 162 162
120.000000 -46.000000 203.484863 163 163 163
131.000000 -46.000000 218.019501 162 162 162
132.000000 -46.000000 220.146515 162 162 162
133.000000 -46.000000 220.501022 160 160 160
134.000000 -46.000000 220.501022 159 159 159
135.000000 -46.000000 218.373993 158 158 158
136.000000 -46.000000 218.728500 150 150 150
137.000000 -46.000000 218.728500 138 138 138
138.000000 -46.000000 218.728500 138 138 138
139.000000 -46.000000 218.728500 137 137 137
140.000000 -46.000000 218.019501 135 135 135
141.000000 -46.000000 218.373993 116 116 116
142.000000 -46.000000 218.019501 83 83 83
143.000000 -46.000000 215.537979 76 76 76
144.000000 -46.000000 215.537979 75 75 75
145.000000 -46.000000 215.183472 74 74 74
146.000000 -46.000000 217.664993 72 72 72
147.000000 -46.000000 217.664993 71 71 71
68.000000 -47.000000 166.616531 120 120 120
69.000000 -47.000000 166.262024 123 123 123
70.000000 -47.000000 165.198517 125 125 125
71.000000 -47.000000 167.325531 126 126 126
72.000000 -47.000000 167.325531 127 127 127
73.000000 -47.000000 167.325531 128 128 128
88.000000 -47.000000 180.796661 142 142 142
89.000000 -47.000000 180.796661 142 142 142
90.000000 -47.000000 181.860168 142 142 142
91.000000 -47.000000 182.923676 143 143 143
95.000000 -47.000000 186.468704 147 147 147
96.000000 -47.000000 188.595718 147 147 147
98.000000 -47.000000 190.013733 148 148 148
99.000000 -47.000000 190.722748 149 149 149
100.000000 -47.000000 190.722748 150 150 150
101.000000 -47.000000 191.077255 152 152 152
102.000000 -47.000000 191.077255 152 152 152
103.000000 -47.000000 192.495255 152 152 152
104.000000 -47.000000 193.913269 154 154 154
105.000000 -47.000000 194.267776 155 155 155
131.000000 -47.000000 218.019501 161 161 161
132.000000 -47.000000 220.146515 162 162 162
133.000000 -47.000000 220.501022 160 160 160
134.000000 -47.000000 220.501022 158 158 158
135.000000 -47.000000 218.373993 156 156 156
136.000000 -47.000000 218.728500 148 148 148
137.000000 -47.000000 218.728500 137 137 137
138.000000 -47.000000 218.728500 136 136 136
139.000000 -47.000000 218.373993 135 135 135
140.000000 -47.000000 218.019501 135 135 135
141.000000 -47.000000 218.019501 115 115 115
142.000000 -47.000000 217.664993 83 83 83
143.000000 -47.000000 215.537979 77 77 77
144.000000 -47.000000 215.537979 76 76 76
145.000000 -47.000000 214.828964 74 74 74
146.000000 -47.000000 217.310486 73 73 73
147.000000 -47.000000 217.310486 72 72 72
68.000000 -48.000000 166.616531 119 119 119
69.000000 -48.000000 166.262024 123 123 123
70.000000 -48.000000 165.198517 125 125 125
71.000000 -48.000000 167.680038 126 126 126
72.000000 -48.000000 167.680038 126 126 126
73.000000 -48.000000 167.680038 127 127 127
81.000000 -48.000000 177.960632 135 135 135
82.000000 -48.000000 178.669632 136 136 136
88.000000 -48.000000 179.733139 141 141 141
89.000000 -48.000000 179.733139 141 141 141
90.000000 -48.000000 180.442154 142 142 142
91.000000 -48.000000 181.151154 143 143 143
92.000000 -48.000000 182.214661 143 143 143
96.000000 -48.000000 187.177719 146 146 146
97.000000 -48.000000 188.950226 147 147 147
98.000000 -48.000000 189.659241 147 147 147
99.000000 -48.000000 190.368240 147 147 147
100.000000 -48.000000 190.368240 150 150 150
101.000000 -48.000000 190.722748 151 151 151
102.000000 -48.000000 190.722748 151 151 151
103.000000 -48.000000 192.140762 151 151 151
104.000000 -48.000000 193.558777 153 153 153
105.000000 -48.000000 194.267776 154 154 154
131.000000 -48.000000 217.664993 162 162 162
132.000000 -48.000000 220.146515 161 161 161
133.000000 -48.000000 220.501022 159 159 159
134.000000 -48.000000 220.146515 157 157 157
135.000000 -48.000000 218.373993 156 156 156
136.000000 -48.000000 218.728500 147 147 147
137.000000 -48.000000 218.728500 136 136 136
138.000000 -48.000000 218.728500 134 134 134
139.000000 -48.000000 218.373993 134 134 134
140.000000 -48.000000 218.019501 133 133 133
141.000000 -48.000000 218.019501 112 112 112
142.000000 -48.000000 217.664993 83 83 83
143.000000 -48.000000 215.183472 77 77 77
144.000000 -48.000000 215.183472 76 76 76
145.000000 -48.000000 214.828964 74 74 74
146.000000 -48.000000 217.310486 73 73 73
147.000000 -48.000000 217.310486 72 72 72
68.000000 -49.000000 166.616531 119 119 119
69.000000 -49.000000 165.907516 123 123 123
70.000000 -49.000000 164.844009 125 125 125
71.000000 -49.000000 167.680038 126 126 126
72.000000 -49.000000 167.680038 126 126 126
73.000000 -49.000000 167.680038 127 127 127
81.000000 -49.000000 178.315125 134 134 134
82.000000 -49.000000 179.378647 136 136 136
83.000000 -49.000000 178.669632 137 137 137
84.000000 -49.000000 179.024139 138 138 138
85.000000 -49.000000 179.024139 139 139 139
86.000000 -49.000000 179.024139 140 140 140
87.000000 -49.000000 179.024139 140 140 140
88.000000 -49.000000 179.733139 140 140 140
89.000000 -49.000000 179.733139 141 141 141
90.000000 -49.000000 180.087646 141 141 141
91.000000 -49.000000 180.442154 142 142 142
92.000000 -49.000000 181.151154 141 141 141
93.000000 -49.000000 181.505661 142 142 142
94.000000 -49.000000 183.278183 144 144 144
95.000000 -49.000000 184.341690 145 145 145
96.000000 -49.000000 185.405197 147 147 147
97.000000 -49.000000 187.177719 146 146 146
98.000000 -49.000000 188.595718 146 146 146
99.000000 -49.000000 188.950226 148 148 148
100.000000 -49.000000 189.659241 149 149 149
101.000000 -49.000000 190.013733 149 149 149
102.000000 -49.000000 190.013733 148 148 148
103.000000 -49.000000 191.431747 149 149 149
104.000000 -49.000000 192.140762 151 151 151
105.000000 -49.000000 193.204269 152 152 152
106.000000 -49.000000 193.558777 154 154 154
122.000000 -49.000000 47.503433 161 161 161
131.000000 -49.000000 217.664993 161 161 161
132.000000 -49.000000 220.146515 159 159 159
133.000000 -49.000000 220.501022 157 157 157
134.000000 -49.000000 220.146515 155 155 155
135.000000 -49.000000 218.373993 155 155 155
136.000000 -49.000000 218.728500 146 146 146
137.000000 -49.000000 218.728500 136 136 136
138.000000 -49.000000 218.728500 134 134 134
139.000000 -49.000000 218.373993 134 134 134
140.000000 -49.000000 218.019501 133 133 133
141.000000 -49.000000 218.019501 112 112 112
142.000000 -49.000000 217.664993 82 82 82
143.000000 -49.000000 214.828964 76 76 76
144.000000 -49.000000 215.183472 75 75 75
145.000000 -49.000000 214.828964 74 74 74
146.000000 -49.000000 217.310486 73 73 73
147.000000 -49.000000 216.955978 72 72 72
68.000000 -50.000000 166.262024 119 119 119
69.000000 -50.000000 165.907516 123 123 123
70.000000 -50.000000 164.844009 125 125 125
71.000000 -50.000000 167.680038 126 126 126
72.000000 -50.000000 167.680038 126 126 126
73.000000 -50.000000 167.680038 127 127 127
77.000000 -50.000000 174.770096 131 131 131
81.000000 -50.000000 178.669632 134 134 134
82.000000 -50.000000 179.378647 136 136 136
83.000000 -50.000000 178.669632 136 136 136
84.000000 -50.000000 179.024139 137 137 137
85.000000 -50.000000 179.024139 138 138 138
86.000000 -50.000000 178.669632 139 139 139
87.000000 -50.000000 179.024139 139 139 139
88.000000 -50.000000 179.378647 140 140 140
89.000000 -50.000000 179.378647 140 140 140
90.000000 -50.000000 179.733139 140 140 140
91.000000 -50.000000 180.442154 142 142 142
92.000000 -50.000000 180.796661 142 142 142
93.000000 -50.000000 181.151154 143 143 143
96.000000 -50.000000 185.050690 146 146 146
97.000000 -50.000000 186.468704 146 146 146
98.000000 -50.000000 187.886719 147 147 147
99.000000 -50.000000 188.241226 148 148 148
100.000000 -50.000000 188.950226 149 149 149
101.000000 -50.000000 189.304733 149 149 149
102.000000 -50.000000 189.659241 147 147 147
103.000000 -50.000000 190.722748 148 148 148
104.000000 -50.000000 191.077255 151 151 151
105.000000 -50.000000 191.786255 153 153 153
106.000000 -50.000000 192.140762 154 154 154
121.000000 -50.000000 47.857937 160 160 160
123.000000 -50.000000 48.566944 161 161 161
131.000000 -50.000000 217.664993 159 159 159
132.000000 -50.000000 219.792007 159 159 159
133.000000 -50.000000 220.146515 157 157 157
134.000000 -50.000000 219.792007 156 156 156
135.000000 -50.000000 218.373993 156 156 156
136.000000 -50.000000 218.728500 146 146 146
137.000000 -50.000000 218.728500 137 137 137
138.000000 -50.000000 218.728500 134 134 134
139.000000 -50.000000 218.373993 134 134 134
140.000000 -50.000000 218.019501 134 134 134
141.000000 -50.000000 218.019501 114 114 114
142.000000 -50.000000 217.664993 82 82 82
143.000000 -50.000000 214.474457 76 76 76
144.000000 -50.000000 214.828964 74 74 74
145.000000 -50.000000 214.474457 74 74 74
146.000000 -50.000000 216.955978 73 73 73
68.000000 -51.000000 166.262024 119 119 119
69.000000 -51.000000 165.907516 123 123 123
70.000000 -51.000000 164.844009 125 125 125
71.000000 -51.000000 167.680038 126 126 126
72.000000 -51.000000 167.680038 126 126 126
73.000000 -51.000000 167.680038 128 128 128
77.000000 -51.000000 174.415604 130 130 130
81.000000 -51.000000 178.669632 133 133 133
82.000000 -51.000000 179.378647 134 134 134
84.000000 -51.000000 179.024139 136 136 136
85.000000 -51.000000 179.024139 136 136 136
86.000000 -51.000000 178.669632 137 137 137
87.000000 -51.000000 179.024139 138 138 138
88.000000 -51.000000 179.733139 138 138 138
89.000000 -51.000000 179.378647 138 138 138
90.000000 -51.000000 179.733139 140 140 140
91.000000 -51.000000 180.442154 141 141 141
92.000000 -51.000000 180.796661 142 142 142
93.000000 -51.000000 181.505661 143 143 143
96.000000 -51.000000 185.405197 146 146 146
97.000000 -51.000000 186.823212 147 147 147
98.000000 -51.000000 187.886719 148 148 148
99.000000 -51.000000 188.241226 148 148 148
100.000000 -51.000000 188.595718 149 149 149
101.000000 -51.000000 189.304733 148 148 148
102.000000 -51.000000 189.304733 147 147 147
103.000000 -51.000000 190.368240 149 149 149
104.000000 -51.000000 190.722748 152 152 152
105.000000 -51.000000 191.077255 154 154 154
106.000000 -51.000000 191.431747 154 154 154
107.000000 -51.000000 191.431747 154 154 154
108.000000 -51.000000 191.077255 155 155 155
109.000000 -51.000000 192.140762 155 155 155
121.000000 -51.000000 48.212440 160 160 160
122.000000 -51.000000 48.566944 160 160 160
131.000000 -51.000000 217.664993 158 158 158
132.000000 -51.000000 219.792007 159 159 159
133.000000 -51.000000 220.146515 158 158 158
134.000000 -51.000000 219.792007 157 157 157
135.000000 -51.000000 218.373993 157 157 157
136.000000 -51.000000 218.373993 146 146 146
137.000000 -51.000000 218.728500 136 136 136
138.000000 -51.000000 218.728500 134 134 134
139.000000 -51.000000 218.373993 133 133 133
140.000000 -51.000000 217.664993 134 134 134
141.000000 -51.000000 218.019501 116 116 116
142.000000 -51.000000 217.664993 82 82 82
143.000000 -51.000000 214.474457 76 76 76
144.000000 -51.000000 214.828964 75 75 75
145.000000 -51.000000 214.474457 73 73 73
146.000000 -51.000000 216.955978 72 72 72
150.000000 -51.000000 158.462952 69 69 69
151.000000 -51.000000 160.235474 67 67 67
68.000000 -52.000000 166.616531 119 119 119
69.000000 -52.000000 166.262024 122 122 122
70.000000 -52.000000 164.844009 124 124 124
71.000000 -52.000000 167.680038 125 125 125
72.000000 -52.000000 167.325531 126 126 126
73.000000 -52.000000 167.680038 127 127 127
76.000000 -52.000000 172.288574 129 129 129
77.000000 -52.000000 174.415604 130 130 130
80.000000 -52.000000 177.960632 132 132 132
81.000000 -52.000000 178.669632 132 132 132
82.000000 -52.000000 179.378647 133 133 133
84.000000 -52.000000 179.024139 135 135 135
85.000000 -52.000000 179.024139 136 136 136
86.000000 -52.000000 179.024139 136 136 136
87.000000 -52.000000 179.378647 136 136 136
88.000000 -52.000000 179.733139 134 134 134
89.000000 -52.000000 179.733139 137 137 137
90.000000 -52.000000 180.087646 138 138 138
91.000000 -52.000000 180.796661 140 140 140
92.000000 -52.000000 181.151154 141 141 141
93.000000 -52.000000 182.214661 141 141 141
98.000000 -52.000000 187.886719 148 148 148
99.000000 -52.000000 188.595718 148 148 148
100.000000 -52.000000 188.950226 148 148 148
101.000000 -52.000000 189.659241 147 147 147
102.000000 -52.000000 189.659241 148 148 148
103.000000 -52.000000 190.368240 150 150 150
104.000000 -52.000000 191.077255 152 152 152
105.000000 -52.000000 191.077255 153 153 153
106.000000 -52.000000 191.077255 152 152 152
107.000000 -52.000000 191.431747 153 153 153
108.000000 -52.000000 191.077255 153 153 153
109.000000 -52.000000 192.140762 154 154 154
121.000000 -52.000000 47.857937 159 159 159
122.000000 -52.000000 48.212440 159 159 159
130.000000 -52.000000 216.246979 156 156 156
131.000000 -52.000000 217.664993 156 156 156
132.000000 -52.000000 219.437515 157 157 157
133.000000 -52.000000 219.792007 158 158 158
134.000000 -52.000000 219.437515 157 157 157
135.000000 -52.000000 218.019501 156 156 156
136.000000 -52.000000 218.373993 145 145 145
137.000000 -52.000000 218.373993 136 136 136
138.000000 -52.000000 218.728500 135 135 135
139.000000 -52.000000 218.019501 134 134 134
140.000000 -52.000000 217.664993 131 131 131
141.000000 -52.000000 218.019501 109 109 109
142.000000 -52.000000 217.310486 80 80 80
143.000000 -52.000000 214.119965 75 75 75
144.000000 -52.000000 214.474457 74 74 74
145.000000 -52.000000 214.119965 72 72 72
146.000000 -52.000000 216.601486 71 71 71
150.000000 -52.000000 158.462952 69 69 69
151.000000 -52.000000 160.589966 68 68 68
68.000000 -53.000000 166.262024 119 119 119
69.000000 -53.000000 165.907516 122 122 122
70.000000 -53.000000 164.844009 124 124 124
71.000000 -53.000000 167.325531 125 125 125
72.000000 -53.000000 167.325531 126 126 126
73.000000 -53.000000 167.325531 127 127 127
76.000000 -53.000000 171.934067 130 130 130
77.000000 -53.000000 174.061096 130 130 130
78.000000 -53.000000 175.479111 130 130 130
80.000000 -53.000000 177.960632 131 131 131
81.000000 -53.000000 178.669632 132 132 132
82.000000 -53.000000 179.024139 133 133 133
83.000000 -53.000000 179.024139 134 134 134
84.000000 -53.000000 179.024139 134 134 134
85.000000 -53.000000 179.024139 135 135 135
86.000000 -53.000000 179.024139 136 136 136
87.000000 -53.000000 179.378647 133 133 133
88.000000 -53.000000 180.087646 132 132 132
89.000000 -53.000000 179.733139 137 137 137
90.000000 -53.000000 180.087646 138 138 138
91.000000 -53.000000 180.796661 139 139 139
92.000000 -53.000000 181.505661 139 139 139
97.000000 -53.000000 186.823212 145 145 145
98.000000 -53.000000 188.241226 146 146 146
99.000000 -53.000000 188.950226 147 147 147
100.000000 -53.000000 189.304733 147 147 147
101.000000 -53.000000 189.659241 147 147 147
102.000000 -53.000000 189.659241 148 148 148
103.000000 -53.000000 190.368240 149 149 149
104.000000 -53.000000 191.077255 149 149 149
105.000000 -53.000000 191.077255 151 151 151
106.000000 -53.000000 191.077255 151 151 151
107.000000 -53.000000 191.431747 152 152 152
108.000000 -53.000000 191.077255 152 152 152
109.000000 -53.000000 192.140762 152 152 152
110.000000 -53.000000 192.495255 154 154 154
121.000000 -53.000000 47.148930 159 159 159
122.000000 -53.000000 47.857937 157 157 157
130.000000 -53.000000 216.246979 156 156 156
131.000000 -53.000000 217.664993 155 155 155
132.000000 -53.000000 219.437515 156 156 156
133.000000 -53.000000 219.792007 156 156 156
134.000000 -53.000000 219.437515 155 155 155
135.000000 -53.000000 218.019501 154 154 154
136.000000 -53.000000 218.373993 144 144 144
137.000000 -53.000000 218.373993 136 136 136
138.000000 -53.000000 218.728500 135 135 135
139.000000 -53.000000 218.019501 134 134 134
140.000000 -53.000000 217.664993 129 129 129
141.000000 -53.000000 217.664993 106 106 106
142.000000 -53.000000 216.955978 80 80 80
143.000000 -53.000000 214.119965 75 75 75
144.000000 -53.000000 214.474457 74 74 74
145.000000 -53.000000 214.119965 73 73 73
146.000000 -53.000000 216.246979 72 72 72
150.000000 -53.000000 159.526459 68 68 68
151.000000 -53.000000 161.298981 68 68 68
68.000000 -54.000000 166.262024 119 119 119
69.000000 -54.000000 165.907516 123 123 123
70.000000 -54.000000 164.844009 124 124 124
71.000000 -54.000000 166.971024 125 125 125
72.000000 -54.000000 167.325531 126 126 126
73.000000 -54.000000 167.325531 126 126 126
75.000000 -54.000000 168.389038 128 128 128
76.000000 -54.000000 171.579575 129 129 129
77.000000 -54.000000 173.352081 129 129 129
78.000000 -54.000000 174.061096 129 129 129
79.000000 -54.000000 176.542618 130 130 130
80.000000 -54.000000 177.251617 130 130 130
81.000000 -54.000000 178.315125 131 131 131
82.000000 -54.000000 178.669632 132 132 132
83.000000 -54.000000 178.669632 133 133 133
84.000000 -54.000000 179.024139 134 134 134
85.000000 -54.000000 178.669632 135 135 135
86.000000 -54.000000 178.669632 134 134 134
87.000000 -54.000000 179.378647 131 131 131
88.000000 -54.000000 180.087646 134 134 134
89.000000 -54.000000 179.733139 138 138 138
90.000000 -54.000000 180.087646 139 139 139
91.000000 -54.000000 180.796661 140 140 140
92.000000 -54.000000 181.505661 138 138 138
96.000000 -54.000000 185.759705 144 144 144
97.000000 -54.000000 186.823212 144 144 144
98.000000 -54.000000 188.241226 145 145 145
99.000000 -54.000000 188.950226 145 145 145
100.000000 -54.000000 189.304733 146 146 146
101.000000 -54.000000 190.013733 148 148 148
102.000000 -54.000000 189.659241 147 147 147
103.000000 -54.000000 190.368240 147 147 147
104.000000 -54.000000 191.077255 147 147 147
105.000000 -54.000000 191.077255 150 150 150
106.000000 -54.000000 190.722748 151 151 151
107.000000 -54.000000 191.077255 152 152 152
108.000000 -54.000000 191.077255 152 152 152
109.000000 -54.000000 191.786255 152 152 152
110.000000 -54.000000 192.495255 153 153 153
130.000000 -54.000000 216.601486 155 155 155
131.000000 -54.000000 217.664993 154 154 154
132.000000 -54.000000 219.437515 155 155 155
133.000000 -54.000000 219.792007 156 156 156
134.000000 -54.000000 219.437515 154 154 154
135.000000 -54.000000 218.019501 152 152 152
136.000000 -54.000000 218.373993 143 143 143
137.000000 -54.000000 218.373993 136 136 136
138.000000 -54.000000 218.728500 134 134 134
139.000000 -54.000000 218.019501 133 133 133
140.000000 -54.000000 217.310486 129 129 129
141.000000 -54.000000 217.664993 106 106 106
142.000000 -54.000000 216.601486 80 80 80
143.000000 -54.000000 213.765457 76 76 76
144.000000 -54.000000 214.119965 74 74 74
145.000000 -54.000000 214.119965 74 74 74
146.000000 -54.000000 215.892471 72 72 72
150.000000 -54.000000 159.880966 67 67 67
151.000000 -54.000000 160.944473 68 68 68
152.000000 -54.000000 166.262024 67 67 67
68.000000 -55.000000 166.262024 119 119 119
69.000000 -55.000000 165.907516 122 122 122
70.000000 -55.000000 164.489502 123 123 123
71.000000 -55.000000 166.971024 125 125 125
72.000000 -55.000000 166.971024 125 125 125
73.000000 -55.000000 166.971024 126 126 126
74.000000 -55.000000 166.262024 127 127 127
75.000000 -55.000000 168.389038 127 127 127
76.000000 -55.000000 171.579575 128 128 128
77.000000 -55.000000 172.643082 128 128 128
80.000000 -55.000000 176.542618 130 130 130
81.000000 -55.000000 177.606125 131 131 131
82.000000 -55.000000 178.669632 132 132 132
83.000000 -55.000000 178.669632 133 133 133
84.000000 -55.000000 178.669632 134 134 134
85.000000 -55.000000 178.669632 134 134 134
86.000000 -55.000000 179.024139 132 132 132
87.000000 -55.000000 179.378647 132 132 132
88.000000 -55.000000 180.087646 137 137 137
89.000000 -55.000000 179.733139 138 138 138
90.000000 -55.000000 180.087646 139 139 139
91.000000 -55.000000 180.796661 140 140 140
92.000000 -55.000000 181.505661 139 139 139
96.000000 -55.000000 185.759705 144 144 144
97.000000 -55.000000 186.823212 144 144 144
98.000000 -55.000000 188.241226 144 144 144
100.000000 -55.000000 189.304733 146 146 146
103.000000 -55.000000 190.368240 147 147 147
104.000000 -55.000000 191.077255 148 148 148
105.000000 -55.000000 191.077255 150 150 150
106.000000 -55.000000 191.077255 152 152 152
107.000000 -55.000000 191.431747 152 152 152
108.000000 -55.000000 191.786255 152 152 152
109.000000 -55.000000 192.849762 152 152 152
110.000000 -55.000000 193.558777 152 152 152
111.000000 -55.000000 195.331284 152 152 152
112.000000 -55.000000 196.749298 153 153 153
113.000000 -55.000000 198.876328 153 153 153
116.000000 -55.000000 203.130356 156 156 156
117.000000 -55.000000 203.484863 156 156 156
118.000000 -55.000000 204.548370 156 156 156
130.000000 -55.000000 216.601486 156 156 156
131.000000 -55.000000 217.664993 154 154 154
132.000000 -55.000000 219.437515 153 153 153
133.000000 -55.000000 219.792007 154 154 154
134.000000 -55.000000 219.083008 153 153 153
135.000000 -55.000000 218.019501 151 151 151
136.000000 -55.000000 218.373993 142 142 142
137.000000 -55.000000 218.373993 135 135 135
138.000000 -55.000000 218.373993 134 134 134
139.000000 -55.000000 217.664993 133 133 133
140.000000 -55.000000 217.310486 129 129 129
141.000000 -55.000000 217.664993 106 106 106
142.000000 -55.000000 215.892471 80 80 80
143.000000 -55.000000 213.410950 76 76 76
144.000000 -55.000000 213.765457 75 75 75
145.000000 -55.000000 214.119965 74 74 74
146.000000 -55.000000 215.892471 72 72 72
147.000000 -55.000000 215.892471 70 70 70
68.000000 -56.000000 165.907516 119 119 119
69.000000 -56.000000 165.553009 122 122 122
70.000000 -56.000000 164.134995 123 123 123
71.000000 -56.000000 166.616531 123 123 123
72.000000 -56.000000 166.971024 125 125 125
73.000000 -56.000000 166.971024 126 126 126
74.000000 -56.000000 165.907516 127 127 127
75.000000 -56.000000 168.389038 127 127 127
76.000000 -56.000000 171.579575 128 128 128
79.000000 -56.000000 175.479111 129 129 129
80.000000 -56.000000 176.542618 129 129 129
81.000000 -56.000000 177.606125 130 130 130
82.000000 -56.000000 178.315125 132 132 132
83.000000 -56.000000 178.669632 133 133 133
84.000000 -56.000000 179.024139 134 134 134
85.000000 -56.000000 179.024139 134 134 134
86.000000 -56.000000 179.024139 133 133 133
87.000000 -56.000000 179.378647 134 134 134
88.000000 -56.000000 180.087646 137 137 137
89.000000 -56.000000 180.087646 138 138 138
90.000000 -56.000000 180.442154 139 139 139
91.000000 -56.000000 181.151154 140 140 140
92.000000 -56.000000 181.860168 140 140 140
96.000000 -56.000000 185.405197 143 143 143
97.000000 -56.000000 186.468704 144 144 144
98.000000 -56.000000 187.886719 144 144 144
103.000000 -56.000000 190.368240 148 148 148
104.000000 -56.000000 191.077255 149 149 149
105.000000 -56.000000 191.077255 150 150 150
106.000000 -56.000000 191.077255 151 151 151
107.000000 -56.000000 191.786255 152 152 152
108.000000 -56.000000 192.495255 152 152 152
109.000000 -56.000000 193.913269 152 152 152
110.000000 -56.000000 194.267776 152 152 152
111.000000 -56.000000 195.685791 151 151 151
112.000000 -56.000000 197.103806 152 152 152
115.000000 -56.000000 202.066849 155 155 155
116.000000 -56.000000 203.130356 155 155 155
117.000000 -56.000000 203.484863 156 156 156
118.000000 -56.000000 204.902878 154 154 154
122.000000 -56.000000 206.320892 158 158 158
123.000000 -56.000000 207.384399 157 157 157
130.000000 -56.000000 216.955978 156 156 156
131.000000 -56.000000 217.664993 153 153 153
132.000000 -56.000000 219.437515 153 153 153
133.000000 -56.000000 219.792007 153 153 153
134.000000 -56.000000 219.083008 152 152 152
135.000000 -56.000000 218.019501 149 149 149
136.000000 -56.000000 218.373993 140 140 140
137.000000 -56.000000 218.373993 134 134 134
138.000000 -56.000000 218.373993 134 134 134
139.000000 -56.000000 217.664993 132 132 132
140.000000 -56.000000 216.955978 128 128 128
141.000000 -56.000000 217.310486 105 105 105
142.000000 -56.000000 215.183472 80 80 80
143.000000 -56.000000 213.410950 75 75 75
144.000000 -56.000000 213.765457 75 75 75
145.000000 -56.000000 214.119965 74 74 74
146.000000 -56.000000 216.246979 72 72 72
147.000000 -56.000000 215.892471 71 71 71
68.000000 -57.000000 165.553009 118 118 118
69.000000 -57.000000 165.553009 122 122 122
70.000000 -57.000000 164.134995 122 122 122
71.000000 -57.000000 166.616531 123 123 123
72.000000 -57.000000 166.616531 125 125 125
73.000000 -57.000000 166.616531 126 126 126
74.000000 -57.000000 165.198517 126 126 126
75.000000 -57.000000 168.389038 126 126 126
76.000000 -57.000000 171.579575 127 127 127
79.000000 -57.000000 175.833603 128 128 128
80.000000 -57.000000 176.897125 128 128 128
81.000000 -57.000000 177.606125 129 129 129
82.000000 -57.000000 178.669632 131 131 131
83.000000 -57.000000 178.669632 133 133 133
84.000000 -57.000000 179.024139 134 134 134
85.000000 -57.000000 179.024139 134 134 134
86.000000 -57.000000 179.024139 134 134 134
87.000000 -57.000000 179.378647 135 135 135
88.000000 -57.000000 180.087646 136 136 136
89.000000 -57.000000 180.087646 137 137 137
90.000000 -57.000000 180.796661 137 137 137
91.000000 -57.000000 181.151154 138 138 138
92.000000 -57.000000 181.860168 139 139 139
93.000000 -57.000000 182.923676 139 139 139
96.000000 -57.000000 185.405197 142 142 142
97.000000 -57.000000 186.114197 143 143 143
98.000000 -57.000000 187.532211 143 143 143
101.000000 -57.000000 302.036774 146 146 146
104.000000 -57.000000 191.077255 147 147 147
105.000000 -57.000000 191.077255 148 148 148
107.000000 -57.000000 192.140762 150 150 150
112.000000 -57.000000 197.812805 152 152 152
115.000000 -57.000000 202.421356 153 153 153
116.000000 -57.000000 203.130356 153 153 153
117.000000 -57.000000 203.484863 155 155 155
118.000000 -57.000000 204.548370 154 154 154
122.000000 -57.000000 206.320892 157 157 157
123.000000 -57.000000 207.029892 157 157 157
124.000000 -57.000000 207.029892 156 156 156
130.000000 -57.000000 216.955978 155 155 155
131.000000 -57.000000 217.664993 153 153 153
132.000000 -57.000000 219.437515 153 153 153
133.000000 -57.000000 219.437515 153 153 153
134.000000 -57.000000 219.083008 152 152 152
135.000000 -57.000000 218.019501 149 149 149
136.000000 -57.000000 218.019501 140 140 140
137.000000 -57.000000 218.373993 133 133 133
138.000000 -57.000000 218.373993 132 132 132
139.000000 -57.000000 217.664993 131 131 131
140.000000 -57.000000 216.955978 128 128 128
141.000000 -57.000000 217.310486 103 103 103
142.000000 -57.000000 214.828964 79 79 79
143.000000 -57.000000 213.056442 75 75 75
144.000000 -57.000000 213.765457 74 74 74
145.000000 -57.000000 214.119965 73 73 73
146.000000 -57.000000 216.246979 72 72 72
148.000000 -57.000000 154.917923 70 70 70
149.000000 -57.000000 155.626923 69 69 69
150.000000 -57.000000 155.272415 69 69 69
68.000000 -58.000000 165.553009 118 118 118
69.000000 -58.000000 165.553009 120 120 120
70.000000 -58.000000 164.134995 121 121 121
71.000000 -58.000000 166.616531 123 123 123
72.000000 -58.000000 166.616531 125 125 125
73.000000 -58.000000 166.616531 125 125 125
74.000000 -58.000000 165.553009 126 126 126
75.000000 -58.000000 168.389038 126 126 126
76.000000 -58.000000 171.225067 127 127 127
77.000000 -58.000000 172.643082 127 127 127
78.000000 -58.000000 173.706589 128 128 128
79.000000 -58.000000 175.479111 128 128 128
80.000000 -58.000000 176.897125 128 128 128
81.000000 -58.000000 177.606125 129 129 129
82.000000 -58.000000 178.315125 130 130 130
83.000000 -58.000000 178.669632 132 132 132
84.000000 -58.000000 179.024139 133 133 133
85.000000 -58.000000 179.024139 134 134 134
86.000000 -58.000000 179.024139 134 134 134
87.000000 -58.000000 179.733139 134 134 134
88.000000 -58.000000 180.442154 135 135 135
89.000000 -58.000000 180.442154 136 136 136
90.000000 -58.000000 181.151154 136 136 136
91.000000 -58.000000 181.505661 137 137 137
92.000000 -58.000000 182.214661 138 138 138
93.000000 -58.000000 182.923676 138 138 138
96.000000 -58.000000 185.050690 141 141 141
97.000000 -58.000000 185.759705 142 142 142
98.000000 -58.000000 186.823212 143 143 143
101.000000 -58.000000 301.682251 145 145 145
102.000000 -58.000000 302.391266 145 145 145
107.000000 -58.000000 192.495255 149 149 149
112.000000 -58.000000 198.876328 153 153 153
115.000000 -58.000000 202.421356 153 153 153
116.000000 -58.000000 203.130356 153 153 153
117.000000 -58.000000 203.130356 154 154 154
118.000000 -58.000000 204.548370 153 153 153
119.000000 -58.000000 204.902878 152 152 152
122.000000 -58.000000 206.320892 156 156 156
123.000000 -58.000000 207.029892 156 156 156
124.000000 -58.000000 207.029892 155 155 155
130.000000 -58.000000 216.601486 154 154 154
131.000000 -58.000000 217.664993 153 153 153
132.000000 -58.000000 219.437515 153 153 153
133.000000 -58.000000 219.437515 153 153 153
134.000000 -58.000000 219.083008 152 152 152
135.000000 -58.000000 217.664993 149 149 149
136.000000 -58.000000 218.019501 140 140 140
137.000000 -58.000000 218.373993 133 133 133
138.000000 -58.000000 218.373993 131 131 131
139.000000 -58.000000 217.664993 130 130 130
140.000000 -58.000000 216.955978 126 126 126
141.000000 -58.000000 217.310486 97 97 97
142.000000 -58.000000 214.828964 71 71 71
143.000000 -58.000000 213.410950 68 68 68
144.000000 -58.000000 213.765457 68 68 68
145.000000 -58.000000 214.474457 67 67 67
146.000000 -58.000000 216.601486 67 67 67
148.000000 -58.000000 154.917923 67 67 67
149.000000 -58.000000 155.272415 67 67 67
150.000000 -58.000000 154.563416 68 68 68
68.000000 -59.000000 165.553009 117 117 117
69.000000 -59.000000 165.553009 119 119 119
70.000000 -59.000000 164.134995 121 121 121
71.000000 -59.000000 166.262024 122 122 122
72.000000 -59.000000 166.616531 125 125 125
73.000000 -59.000000 166.616531 125 125 125
74.000000 -59.000000 165.553009 125 125 125
75.000000 -59.000000 168.389038 126 126 126
76.000000 -59.000000 170.516068 126 126 126
77.000000 -59.000000 172.288574 126 126 126
78.000000 -59.000000 173.352081 127 127 127
79.000000 -59.000000 175.479111 128 128 128
80.000000 -59.000000 176.542618 129 129 129
81.000000 -59.000000 177.606125 128 128 128
82.000000 -59.000000 178.315125 129 129 129
83.000000 -59.000000 178.669632 131 131 131
84.000000 -59.000000 179.024139 133 133 133
85.000000 -59.000000 179.024139 134 134 134
86.000000 -59.000000 179.378647 133 133 133
87.000000 -59.000000 179.733139 134 134 134
88.000000 -59.000000 180.442154 134 134 134
89.000000 -59.000000 180.796661 136 136 136
90.000000 -59.000000 181.505661 136 136 136
91.000000 -59.000000 181.860168 137 137 137
92.000000 -59.000000 182.569168 138 138 138
93.000000 -59.000000 183.278183 138 138 138
97.000000 -59.000000 185.759705 141 141 141
101.000000 -59.000000 301.682251 144 144 144
102.000000 -59.000000 302.391266 145 145 145
112.000000 -59.000000 199.230820 153 153 153
115.000000 -59.000000 202.066849 153 153 153
116.000000 -59.000000 202.775848 152 152 152
117.000000 -59.000000 202.775848 153 153 153
118.000000 -59.000000 204.193863 153 153 153
123.000000 -59.000000 207.029892 155 155 155
124.000000 -59.000000 207.029892 154 154 154
130.000000 -59.000000 216.601486 153 153 153
131.000000 -59.000000 217.664993 152 152 152
132.000000 -59.000000 219.437515 153 153 153
133.000000 -59.000000 219.437515 152 152 152
134.000000 -59.000000 219.083008 150 150 150
135.000000 -59.000000 217.664993 148 148 148
136.000000 -59.000000 218.019501 140 140 140
137.000000 -59.000000 218.019501 134 134 134
138.000000 -59.000000 218.019501 132 132 132
139.000000 -59.000000 217.664993 131 131 131
140.000000 -59.000000 216.955978 125 125 125
141.000000 -59.000000 217.310486 86 86 86
142.000000 -59.000000 214.828964 53 53 53
143.000000 -59.000000 213.410950 49 49 49
144.000000 -59.000000 213.765457 48 48 48
145.000000 -59.000000 214.474457 48 48 48
146.000000 -59.000000 216.601486 48 48 48
149.000000 -59.000000 155.272415 49 49 49
150.000000 -59.000000 154.563416 51 51 51
68.000000 -60.000000 165.553009 117 117 117
69.000000 -60.000000 165.553009 119 119 119
70.000000 -60.000000 164.489502 120 120 120
71.000000 -60.000000 166.262024 122 122 122
72.000000 -60.000000 166.616531 124 124 124
73.000000 -60.000000 166.616531 124 124 124
74.000000 -60.000000 165.553009 124 124 124
75.000000 -60.000000 168.389038 126 126 126
76.000000 -60.000000 170.516068 126 126 126
77.000000 -60.000000 172.288574 126 126 126
78.000000 -60.000000 173.352081 127 127 127
79.000000 -60.000000 174.770096 128 128 128
80.000000 -60.000000 175.833603 128 128 128
81.000000 -60.000000 177.251617 128 128 128
82.000000 -60.000000 177.960632 128 128 128
83.000000 -60.000000 178.669632 129 129 129
84.000000 -60.000000 179.024139 131 131 131
85.000000 -60.000000 179.378647 133 133 133
86.000000 -60.000000 179.378647 133 133 133
87.000000 -60.000000 179.733139 133 133 133
88.000000 -60.000000 180.796661 134 134 134
89.000000 -60.000000 181.151154 136 136 136
90.000000 -60.000000 181.860168 136 136 136
91.000000 -60.000000 182.569168 136 136 136
102.000000 -60.000000 302.391266 144 144 144
111.000000 -60.000000 197.812805 151 151 151
112.000000 -60.000000 198.876328 152 152 152
115.000000 -60.000000 201.712341 151 151 151
